1.984014868736267,0.20325832068920135,-0.7508556842803955,0,0,0
1.9806125164031982,0.1770707219839096,-0.7475937008857727,0,0,0
1.9770630598068237,0.16847100853919983,-0.7461278438568115,0,0,0
1.965069055557251,0.18928949534893036,-0.7526307106018066,0,0,0
1.9659860134124756,0.18811222910881042,-0.7650898694992065,0,0,0
1.974828839302063,0.1970548927783966,-0.7547419667243958,0,0,0
1.9735089540481567,0.22979198396205902,-0.73444002866745,0,0,0
1.9701745510101318,0.25438767671585083,-0.7214289307594299,0,0,0
1.9856562614440918,0.2475263923406601,-0.7251055836677551,0,0,0
1.9923226833343506,0.2352258265018463,-0.732243537902832,0,0,0
1.9902833700180054,0.22683867812156677,-0.7436294555664062,0,0,0
1.981441617012024,0.22108094394207,-0.7501696348190308,0,0,0
1.9803794622421265,0.2146766036748886,-0.7527027130126953,0,0,0
1.9757087230682373,0.20398655533790588,-0.7503919005393982,0,0,0
1.9722180366516113,0.20031507313251495,-0.7506155371665955,0,0,0
1.9715602397918701,0.20704254508018494,-0.7527280449867249,0,0,0
1.9738489389419556,0.21623358130455017,-0.7532046437263489,0,0,0
1.971854567527771,0.23001869022846222,-0.7513474822044373,0,0,0
1.969717264175415,0.2308482825756073,-0.7489196062088013,0,0,0
1.9669462442398071,0.22463177144527435,-0.7469664812088013,0,0,0
1.9683479070663452,0.22134944796562195,-0.7466148138046265,0,0,0
1.9682368040084839,0.20943337678909302,-0.7502321600914001,0,0,0
1.9612575769424438,0.1887027621269226,-0.7529598474502563,0,0,0
1.955693006515503,0.17950211465358734,-0.7545679807662964,0,0,0
1.9534220695495605,0.19110438227653503,-0.7574566006660461,0,0,0
1.9535741806030273,0.19355542957782745,-0.7511487007141113,0,0,0
1.9552839994430542,0.1964782029390335,-0.7402317523956299,0,0,0
1.95701265335083,0.2037312388420105,-0.7312507033348083,0,0,0
1.9658095836639404,0.20932529866695404,-0.7309855818748474,0,0,0
1.9753860235214233,0.21879862248897552,-0.7374268174171448,0,0,0
1.9819282293319702,0.21644940972328186,-0.7428230047225952,0,0,0
1.9837534427642822,0.20451758801937103,-0.7476070523262024,0,0,0
1.9791560173034668,0.20317724347114563,-0.7518662214279175,0,0,0
1.976003885269165,0.1934448480606079,-0.7554665803909302,0,0,0
1.9745662212371826,0.18750262260437012,-0.756296694278717,0,0,0
1.9722753763198853,0.19607634842395782,-0.7546940445899963,0,0,0
1.9762626886367798,0.19715464115142822,-0.7530233860015869,0,0,0
1.9763052463531494,0.18996110558509827,-0.752228856086731,0,0,0
1.971207618713379,0.20157897472381592,-0.7538173198699951,0,0,0
1.9635587930679321,0.2206183671951294,-0.7519524097442627,0,0,0
1.9622297286987305,0.22768712043762207,-0.7524645328521729,0,0,0
1.9697439670562744,0.21972623467445374,-0.753154456615448,0,0,0
1.977457046508789,0.20702654123306274,-0.7545897364616394,0,0,0
1.9824466705322266,0.20602428913116455,-0.753888726234436,0,0,0
1.9843919277191162,0.20559683442115784,-0.7527146935462952,0,0,0
1.9757874011993408,0.19991569221019745,-0.7516052722930908,0,0,0
1.9625765085220337,0.2021985650062561,-0.7519620060920715,0,0,0
1.963836669921875,0.21685856580734253,-0.7536089420318604,0,0,0
1.9685609340667725,0.22034268081188202,-0.752579391002655,0,0,0
1.9693254232406616,0.20733283460140228,-0.755086362361908,0,0,0
1.970585584640503,0.19564160704612732,-0.7560504674911499,0,0,0
1.97327721118927,0.19488714635372162,-0.7544699907302856,0,0,0
1.9731303453445435,0.2008144110441208,-0.7523584961891174,0,0,0
1.9724626541137695,0.20795941352844238,-0.7507321238517761,0,0,0
1.9734387397766113,0.20770953595638275,-0.7460002899169922,0,0,0
1.9684312343597412,0.20771630108356476,-0.7462453246116638,0,0,0
1.9605261087417603,0.2101537436246872,-0.7540838718414307,0,0,0
1.959613561630249,0.19086062908172607,-0.7546964883804321,0,0,0
1.9665323495864868,0.17329809069633484,-0.750521719455719,0,0,0
1.9758902788162231,0.16858921945095062,-0.7451562881469727,0,0,0
1.9820730686187744,0.17852294445037842,-0.7458863854408264,0,0,0
1.9762909412384033,0.1961086541414261,-0.7472702264785767,0,0,0
1.9682576656341553,0.20487084984779358,-0.7457232475280762,0,0,0
1.9659547805786133,0.21785332262516022,-0.7448747754096985,0,0,0
1.9662941694259644,0.22921499609947205,-0.7475321888923645,0,0,0
1.966299295425415,0.23915155231952667,-0.7499269843101501,0,0,0
1.9694099426269531,0.22811748087406158,-0.7505097985267639,0,0,0
1.9667623043060303,0.21400770545005798,-0.7515755891799927,0,0,0
1.9619032144546509,0.2069319486618042,-0.7510822415351868,0,0,0
1.9629796743392944,0.20082618296146393,-0.7498297095298767,0,0,0
1.9595588445663452,0.20431551337242126,-0.7468420267105103,0,0,0
1.956956386566162,0.2020847052335739,-0.745141863822937,0,0,0
1.9556981325149536,0.19572457671165466,-0.7470477819442749,0,0,0
1.9623783826828003,0.19934943318367004,-0.750573992729187,0,0,0
1.9677870273590088,0.2059062123298645,-0.7524443864822388,0,0,0
1.9776140451431274,0.20974430441856384,-0.7517626881599426,0,0,0
1.9815363883972168,0.20027953386306763,-0.7497326135635376,0,0,0
1.9793280363082886,0.18818682432174683,-0.7500066161155701,0,0,0
1.9737319946289062,0.19233843684196472,-0.7501150965690613,0,0,0
1.9645766019821167,0.1984473615884781,-0.7503723502159119,0,0,0
1.9594045877456665,0.1975572109222412,-0.7520960569381714,0,0,0
1.9592679738998413,0.1992598921060562,-0.7515743374824524,0,0,0
1.959161639213562,0.20763860642910004,-0.7507887482643127,0,0,0
1.9588754177093506,0.21128524839878082,-0.7527616024017334,0,0,0
1.9626877307891846,0.20784316956996918,-0.7529708743095398,0,0,0
1.967343807220459,0.20495757460594177,-0.7538691759109497,0,0,0
1.9742969274520874,0.2107437252998352,-0.7509971261024475,0,0,0
1.9806755781173706,0.21501576900482178,-0.7500354647636414,0,0,0
1.9837450981140137,0.21566981077194214,-0.7493681907653809,0,0,0
1.9848474264144897,0.20960521697998047,-0.7529458403587341,0,0,0
1.9795857667922974,0.20039282739162445,-0.7515741586685181,0,0,0
1.9824509620666504,0.19082212448120117,-0.7521873712539673,0,0,0
1.9832732677459717,0.19346186518669128,-0.7516982555389404,0,0,0
1.9729746580123901,0.20753122866153717,-0.7488628029823303,0,0,0
1.964558720588684,0.22429487109184265,-0.7427805662155151,0,0,0
1.9615662097930908,0.22323669493198395,-0.7409547567367554,0,0,0
1.964613914489746,0.2157035619020462,-0.7424048185348511,0,0,0
1.9624322652816772,0.21395492553710938,-0.747657299041748,0,0,0
1.9601956605911255,0.2030785232782364,-0.7490392327308655,0,0,0
1.9635968208312988,0.19457152485847473,-0.7497056126594543,0,0,0
1.9609358310699463,0.20059499144554138,-0.7499518394470215,0,0,0
1.9676042795181274,0.20982149243354797,-0.751497745513916,0,0,0
1.9658280611038208,0.20977041125297546,-0.7485983967781067,0,0,0
1.9566699266433716,0.2004915475845337,-0.7486532330513,0,0,0
1.9533134698867798,0.19447433948516846,-0.7489116787910461,0,0,0
1.950951337814331,0.1977999210357666,-0.7531150579452515,0,0,0
1.9526151418685913,0.20213595032691956,-0.7524572014808655,0,0,0
1.956573724746704,0.21266277134418488,-0.7501272559165955,0,0,0
1.957863211631775,0.20723414421081543,-0.7511138319969177,0,0,0
1.9633885622024536,0.20315000414848328,-0.7539971470832825,0,0,0
1.9661107063293457,0.21192339062690735,-0.7518455386161804,0,0,0
1.9698512554168701,0.21156899631023407,-0.7512639760971069,0,0,0
1.9745229482650757,0.19548222422599792,-0.7501305341720581,0,0,0
1.9771955013275146,0.18709416687488556,-0.7507132887840271,0,0,0
1.9715830087661743,0.20668819546699524,-0.7492817640304565,0,0,0
1.9673857688903809,0.21841877698898315,-0.752212405204773,0,0,0
1.9628502130508423,0.22448675334453583,-0.748120129108429,0,0,0
1.9634788036346436,0.22126330435276031,-0.7443562150001526,0,0,0
1.9691239595413208,0.20590026676654816,-0.7446990609169006,0,0,0
1.9723365306854248,0.20247387886047363,-0.7448786497116089,0,0,0
1.9710098505020142,0.20481525361537933,-0.7441345453262329,0,0,0
1.9699925184249878,0.20275020599365234,-0.7463414669036865,0,0,0
1.9668323993682861,0.20735374093055725,-0.7472167611122131,0,0,0
1.9685628414154053,0.20898468792438507,-0.7493668794631958,0,0,0
1.968217134475708,0.2133762091398239,-0.7509965300559998,0,0,0
1.961218237876892,0.21282438933849335,-0.7503998279571533,0,0,0
1.9570810794830322,0.2084813416004181,-0.746069073677063,0,0,0
1.961039423942566,0.20276613533496857,-0.7464369535446167,0,0,0
1.9612048864364624,0.20126788318157196,-0.7477489709854126,0,0,0
1.9527257680892944,0.19858264923095703,-0.7483252882957458,0,0,0
1.9484727382659912,0.20349463820457458,-0.7508459091186523,0,0,0
1.950514554977417,0.1973734050989151,-0.7505400776863098,0,0,0
1.9606051445007324,0.18359819054603577,-0.7526113390922546,0,0,0
1.9690361022949219,0.192514106631279,-0.7516611218452454,0,0,0
1.979354739189148,0.18732784688472748,-0.7513392567634583,0,0,0
1.9806267023086548,0.17887777090072632,-0.7497466206550598,0,0,0
1.9742790460586548,0.17326560616493225,-0.7488443851470947,0,0,0
1.972576379776001,0.1897915005683899,-0.7503750324249268,0,0,0
1.9808440208435059,0.20075398683547974,-0.7503999471664429,0,0,0
1.9789968729019165,0.20022527873516083,-0.7510525584220886,0,0,0
1.9709322452545166,0.20286263525485992,-0.7535739541053772,0,0,0
1.961181640625,0.2147970199584961,-0.7576337456703186,0,0,0
1.964647650718689,0.21734705567359924,-0.754021167755127,0,0,0
1.9695014953613281,0.21730220317840576,-0.7505006194114685,0,0,0
1.971850872039795,0.21344849467277527,-0.7468690872192383,0,0,0
1.9743378162384033,0.21077877283096313,-0.7477891445159912,0,0,0
1.9718843698501587,0.20586752891540527,-0.7525100708007812,0,0,0
1.9671109914779663,0.20388081669807434,-0.7548143267631531,0,0,0
1.9621849060058594,0.20337356626987457,-0.7529193162918091,0,0,0
1.9634809494018555,0.2080831378698349,-0.7492814064025879,0,0,0
1.9670008420944214,0.21864505112171173,-0.7463022470474243,0,0,0
1.971052885055542,0.22727933526039124,-0.7462900876998901,0,0,0
1.9732933044433594,0.22720322012901306,-0.7446792721748352,0,0,0
1.9701423645019531,0.22084423899650574,-0.7473640441894531,0,0,0
1.973473310470581,0.20544525980949402,-0.7514039278030396,0,0,0
1.9762672185897827,0.1986703872680664,-0.7494000792503357,0,0,0
1.9791405200958252,0.20639415085315704,-0.748215913772583,0,0,0
1.9788119792938232,0.19540871679782867,-0.7490373253822327,0,0,0
1.981434941291809,0.17820413410663605,-0.7503883838653564,0,0,0
1.975670337677002,0.17774583399295807,-0.7533232569694519,0,0,0
1.9683818817138672,0.1887456476688385,-0.7521552443504333,0,0,0
1.9633870124816895,0.19794198870658875,-0.7519187331199646,0,0,0
1.9584524631500244,0.2064107358455658,-0.7519107460975647,0,0,0
1.963639736175537,0.20527581870555878,-0.752575159072876,0,0,0
1.9701775312423706,0.20178033411502838,-0.754509687423706,0,0,0
1.9737238883972168,0.20344701409339905,-0.7551905512809753,0,0,0
1.9780899286270142,0.20427247881889343,-0.7527575492858887,0,0,0
1.9775433540344238,0.20822963118553162,-0.7529919743537903,0,0,0
1.975046157836914,0.20879241824150085,-0.7539160251617432,0,0,0
1.9735102653503418,0.19141533970832825,-0.7540122866630554,0,0,0
1.968363881111145,0.1857757270336151,-0.7519518136978149,0,0,0
1.9614589214324951,0.19820956885814667,-0.7489583492279053,0,0,0
1.9568675756454468,0.21036802232265472,-0.7471668124198914,0,0,0
1.957458257675171,0.21101415157318115,-0.7478830814361572,0,0,0
1.9571765661239624,0.21109150350093842,-0.7478642463684082,0,0,0
1.959224820137024,0.20287637412548065,-0.744441032409668,0,0,0
1.9605823755264282,0.19376985728740692,-0.7431851625442505,0,0,0
1.9616715908050537,0.18603204190731049,-0.7430331707000732,0,0,0
1.960629940032959,0.1768069565296173,-0.747231125831604,0,0,0
1.9587340354919434,0.17479591071605682,-0.7504565715789795,0,0,0
1.960939884185791,0.17655301094055176,-0.7525748610496521,0,0,0
1.9625377655029297,0.18883773684501648,-0.7512470483779907,0,0,0
1.9643394947052002,0.1961575597524643,-0.7500547170639038,0,0,0
1.9659472703933716,0.2077304869890213,-0.7534044981002808,0,0,0
1.9718382358551025,0.21101434528827667,-0.7547053098678589,0,0,0
1.9819730520248413,0.2005900889635086,-0.7540807127952576,0,0,0
1.982141137123108,0.20104873180389404,-0.753450870513916,0,0,0
1.9807953834533691,0.20833559334278107,-0.7485272884368896,0,0,0
1.9791141748428345,0.2193981260061264,-0.7443963289260864,0,0,0
1.969264268875122,0.2190888524055481,-0.7450488805770874,0,0,0
1.9568064212799072,0.20258791744709015,-0.747404158115387,0,0,0
1.9542986154556274,0.17706294357776642,-0.7473971247673035,0,0,0
1.9591387510299683,0.1661531627178192,-0.7502539753913879,0,0,0
1.9680242538452148,0.17801973223686218,-0.7541208863258362,0,0,0
1.972548246383667,0.19805733859539032,-0.7593935132026672,0,0,0
1.9756803512573242,0.21448491513729095,-0.7561296820640564,0,0,0
1.981380581855774,0.21226021647453308,-0.7516825795173645,0,0,0
1.9848703145980835,0.2086077481508255,-0.7514245510101318,0,0,0
1.9875766038894653,0.21803632378578186,-0.7506263256072998,0,0,0
1.9880783557891846,0.22689354419708252,-0.7440974712371826,0,0,0
1.9844335317611694,0.21842245757579803,-0.7429205775260925,0,0,0
1.9760032892227173,0.2009807676076889,-0.7462889552116394,0,0,0
1.9675202369689941,0.1947021782398224,-0.7497456073760986,0,0,0
1.972843050956726,0.19749726355075836,-0.7502667307853699,0,0,0
1.9765442609786987,0.18998029828071594,-0.7487757205963135,0,0,0
1.9775315523147583,0.189646914601326,-0.750808835029602,0,0,0
1.977285623550415,0.18435026705265045,-0.7546771764755249,0,0,0
1.9833481311798096,0.17975598573684692,-0.7543426752090454,0,0,0
1.9849636554718018,0.18272285163402557,-0.7537147998809814,0,0,0
1.9844377040863037,0.20179441571235657,-0.7522639632225037,0,0,0
1.9783129692077637,0.21870057284832,-0.7522405385971069,0,0,0
1.971243143081665,0.22123628854751587,-0.7490369081497192,0,0,0
1.960025429725647,0.21904464066028595,-0.7484219074249268,0,0,0
1.9538897275924683,0.21441596746444702,-0.7483128309249878,0,0,0
1.95572829246521,0.21637174487113953,-0.7494620084762573,0,0,0
1.9546056985855103,0.2188238948583603,-0.7481452822685242,0,0,0
1.9549601078033447,0.2177174687385559,-0.7496038675308228,0,0,0
1.9607372283935547,0.21772894263267517,-0.7542579770088196,0,0,0
1.9663914442062378,0.216279536485672,-0.7541469931602478,0,0,0
1.967059850692749,0.21457505226135254,-0.7536177635192871,0,0,0
1.9697704315185547,0.20902252197265625,-0.7540035247802734,0,0,0
1.972866177558899,0.19486874341964722,-0.7536070346832275,0,0,0
1.9791147708892822,0.18557538092136383,-0.7523285150527954,0,0,0
1.9844231605529785,0.17915232479572296,-0.7521845698356628,0,0,0
1.9859853982925415,0.1726617068052292,-0.7523327469825745,0,0,0
1.9837071895599365,0.17181923985481262,-0.7541369199752808,0,0,0
1.9785362482070923,0.1739143431186676,-0.7539993524551392,0,0,0
1.9744471311569214,0.1803136020898819,-0.753016471862793,0,0,0
1.9678171873092651,0.1921156495809555,-0.7511583566665649,0,0,0
1.963926076889038,0.20400501787662506,-0.7525970935821533,0,0,0
1.963530421257019,0.20195335149765015,-0.7519425749778748,0,0,0
1.9626933336257935,0.2047288715839386,-0.7493727207183838,0,0,0
1.961061954498291,0.208499014377594,-0.7473593950271606,0,0,0
1.9609357118606567,0.20431311428546906,-0.746155858039856,0,0,0
1.9613244533538818,0.20114831626415253,-0.7479799389839172,0,0,0
1.960011601448059,0.1941966563463211,-0.7497339248657227,0,0,0
1.9616215229034424,0.18410927057266235,-0.7509884834289551,0,0,0
1.9572703838348389,0.17870518565177917,-0.7503396272659302,0,0,0
1.9600887298583984,0.1942158043384552,-0.7490662336349487,0,0,0
1.961438775062561,0.2079954296350479,-0.7475978136062622,0,0,0
1.9599494934082031,0.207746222615242,-0.7475208044052124,0,0,0
1.9651120901107788,0.19966129958629608,-0.7497795820236206,0,0,0
1.9739573001861572,0.1851923018693924,-0.7516354322433472,0,0,0
1.9809041023254395,0.18128174543380737,-0.752311646938324,0,0,0
1.987018346786499,0.17134986817836761,-0.7554003000259399,0,0,0
1.9938273429870605,0.17803043127059937,-0.7575324177742004,0,0,0
1.990887999534607,0.19152450561523438,-0.7559568881988525,0,0,0
1.9836409091949463,0.19685566425323486,-0.752269983291626,0,0,0
1.9797203540802002,0.1854676604270935,-0.7480920553207397,0,0,0
1.9799468517303467,0.1919153332710266,-0.7468017935752869,0,0,0
1.9759536981582642,0.2071124166250229,-0.7479220032691956,0,0,0
1.9662292003631592,0.2237108051776886,-0.7465595006942749,0,0,0
1.9584181308746338,0.22703933715820312,-0.7483816146850586,0,0,0
1.9594080448150635,0.21539261937141418,-0.7516871690750122,0,0,0
1.9621260166168213,0.19218620657920837,-0.7522004246711731,0,0,0
1.9651144742965698,0.17147839069366455,-0.7541537284851074,0,0,0
1.9633878469467163,0.1723281741142273,-0.7536562085151672,0,0,0
1.9666929244995117,0.17863716185092926,-0.7555930018424988,0,0,0
1.977685809135437,0.17596961557865143,-0.7556124925613403,0,0,0
1.978601098060608,0.17528340220451355,-0.7511667013168335,0,0,0
1.9730286598205566,0.17932003736495972,-0.7472754120826721,0,0,0
1.9765393733978271,0.17622683942317963,-0.744918704032898,0,0,0
1.9693689346313477,0.18447279930114746,-0.745063841342926,0,0,0
1.9612901210784912,0.19995494186878204,-0.7462255954742432,0,0,0
1.9607856273651123,0.20313942432403564,-0.747218668460846,0,0,0
1.9608412981033325,0.19838327169418335,-0.7497751712799072,0,0,0
1.9592087268829346,0.19905990362167358,-0.7507643103599548,0,0,0
1.9614224433898926,0.19880713522434235,-0.7489933967590332,0,0,0
1.9673916101455688,0.1914607435464859,-0.7481427192687988,0,0,0
1.9747116565704346,0.18554285168647766,-0.7518762946128845,0,0,0
1.974690318107605,0.18799979984760284,-0.7524704933166504,0,0,0
1.969462275505066,0.17742329835891724,-0.7523313164710999,0,0,0
1.9692676067352295,0.16604912281036377,-0.7521513104438782,0,0,0
1.973591923713684,0.1794416457414627,-0.750588059425354,0,0,0
1.97581148147583,0.18841132521629333,-0.7491553425788879,0,0,0
1.9778578281402588,0.18653106689453125,-0.7502753734588623,0,0,0
1.975003957748413,0.17596155405044556,-0.7491098642349243,0,0,0
1.9724291563034058,0.15911206603050232,-0.7503641843795776,0,0,0
1.9727747440338135,0.16341203451156616,-0.7530691027641296,0,0,0
1.9692878723144531,0.16207927465438843,-0.7553228139877319,0,0,0
1.971549153327942,0.15423539280891418,-0.7573378682136536,0,0,0
1.9780205488204956,0.1579393893480301,-0.7570072412490845,0,0,0
1.9854954481124878,0.16750472784042358,-0.7556867003440857,0,0,0
1.982434868812561,0.1826353371143341,-0.7547092437744141,0,0,0
1.9755923748016357,0.19211411476135254,-0.7527443766593933,0,0,0
1.9710869789123535,0.19371852278709412,-0.7551925778388977,0,0,0
1.9734106063842773,0.1851087510585785,-0.7550686597824097,0,0,0
1.9836043119430542,0.18727806210517883,-0.7523144483566284,0,0,0
1.9880445003509521,0.20427146553993225,-0.7539790272712708,0,0,0
1.9813995361328125,0.21449804306030273,-0.7519007325172424,0,0,0
1.9774348735809326,0.219363272190094,-0.7489832043647766,0,0,0
1.9774348735809326,0.219363272190094,-0.7489832043647766,0,0,0
1.9753377437591553,0.21837207674980164,-0.7451177835464478,0,0,0
1.9719773530960083,0.21013742685317993,-0.7433202266693115,0,0,0
1.9661295413970947,0.21045193076133728,-0.7453675866127014,0,0,0
1.9657032489776611,0.19711321592330933,-0.7473734021186829,0,0,0
1.968302845954895,0.18507835268974304,-0.7479661703109741,0,0,0
1.9683473110198975,0.18432247638702393,-0.7478203773498535,0,0,0
1.9720903635025024,0.17909058928489685,-0.7493774890899658,0,0,0
1.9734914302825928,0.1739506870508194,-0.7462248206138611,0,0,0
1.9645118713378906,0.1665298491716385,-0.7433074116706848,0,0,0
1.954565405845642,0.16782572865486145,-0.7420878410339355,0,0,0
1.9469857215881348,0.18475782871246338,-0.7462773323059082,0,0,0
1.9469776153564453,0.2027524709701538,-0.7478808760643005,0,0,0
1.956496000289917,0.21417976915836334,-0.7474204897880554,0,0,0
1.9639049768447876,0.2112313210964203,-0.7545257806777954,0,0,0
1.9720269441604614,0.20849300920963287,-0.7569082379341125,0,0,0
1.9777891635894775,0.20355206727981567,-0.7551950812339783,0,0,0
1.9837676286697388,0.18880322575569153,-0.7565118074417114,0,0,0
1.9863852262496948,0.1836697906255722,-0.7554105520248413,0,0,0
1.9863035678863525,0.17908312380313873,-0.7511603236198425,0,0,0
1.9824578762054443,0.17471349239349365,-0.751963198184967,0,0,0
1.980031967163086,0.16979879140853882,-0.7515463829040527,0,0,0
1.9763821363449097,0.16290836036205292,-0.7509106397628784,0,0,0
1.9760076999664307,0.1594376415014267,-0.7534207105636597,0,0,0
1.9768242835998535,0.17898328602313995,-0.7538642287254333,0,0,0
1.9712097644805908,0.19259074330329895,-0.7508375644683838,0,0,0
1.96708345413208,0.18623128533363342,-0.7515614628791809,0,0,0
1.9674323797225952,0.17782175540924072,-0.7519975304603577,0,0,0
1.9654123783111572,0.1893012970685959,-0.749530553817749,0,0,0
1.9695513248443604,0.2053729146718979,-0.7469596862792969,0,0,0
1.973551630973816,0.2071293145418167,-0.7474943995475769,0,0,0
1.9639432430267334,0.21871979534626007,-0.7476195693016052,0,0,0
1.9546788930892944,0.2263169139623642,-0.7444641590118408,0,0,0
1.9549983739852905,0.22280605137348175,-0.7445290088653564,0,0,0
1.9596978425979614,0.22205930948257446,-0.7464603185653687,0,0,0
1.9594823122024536,0.2291012704372406,-0.7422625422477722,0,0,0
1.9658238887786865,0.22782233357429504,-0.7432745099067688,0,0,0
1.9688818454742432,0.20868611335754395,-0.7474062442779541,0,0,0
1.9693782329559326,0.19162601232528687,-0.750165581703186,0,0,0
1.9734077453613281,0.18219201266765594,-0.751959502696991,0,0,0
1.971018671989441,0.1648760885000229,-0.7527118921279907,0,0,0
1.9642170667648315,0.14781410992145538,-0.7524401545524597,0,0,0
1.969649076461792,0.1572936624288559,-0.7525261640548706,0,0,0
1.9779884815216064,0.17893384397029877,-0.7523708939552307,0,0,0
1.9806854724884033,0.19358311593532562,-0.7500774264335632,0,0,0
1.9777928590774536,0.19232767820358276,-0.7499476671218872,0,0,0
1.9732210636138916,0.19613349437713623,-0.7502082586288452,0,0,0
1.971863031387329,0.18667197227478027,-0.7520164251327515,0,0,0
1.9743255376815796,0.16461719572544098,-0.7511179447174072,0,0,0
1.9790582656860352,0.1671115905046463,-0.7546945810317993,0,0,0
1.9766572713851929,0.18420158326625824,-0.7518064975738525,0,0,0
1.9711453914642334,0.1778499335050583,-0.7474877238273621,0,0,0
1.969988465309143,0.1828525960445404,-0.7439035773277283,0,0,0
1.9786689281463623,0.17775963246822357,-0.74725341796875,0,0,0
1.9880198240280151,0.15351995825767517,-0.7482080459594727,0,0,0
1.9862600564956665,0.16251258552074432,-0.7496890425682068,0,0,0
1.9758599996566772,0.18378134071826935,-0.7458987236022949,0,0,0
1.9731178283691406,0.19286894798278809,-0.7462227940559387,0,0,0
1.9709227085113525,0.1983800083398819,-0.7489320039749146,0,0,0
1.9642399549484253,0.20189067721366882,-0.7500872015953064,0,0,0
1.9595458507537842,0.2097276747226715,-0.7500850558280945,0,0,0
1.9617735147476196,0.219827800989151,-0.750904381275177,0,0,0
1.9612233638763428,0.21634088456630707,-0.752134382724762,0,0,0
1.960120677947998,0.2008313536643982,-0.7535704970359802,0,0,0
1.9623198509216309,0.1894635409116745,-0.7551027536392212,0,0,0
1.9676226377487183,0.18899331986904144,-0.7551488876342773,0,0,0
1.9738327264785767,0.19962963461875916,-0.7541108727455139,0,0,0
1.9774988889694214,0.2080419510602951,-0.7550057768821716,0,0,0
1.975691318511963,0.1997402310371399,-0.753305196762085,0,0,0
1.968840479850769,0.18891319632530212,-0.7514731884002686,0,0,0
1.960752010345459,0.18947811424732208,-0.7485199570655823,0,0,0
1.9622912406921387,0.19292044639587402,-0.7480558753013611,0,0,0
1.9627975225448608,0.19885952770709991,-0.7498217821121216,0,0,0
1.962926983833313,0.2082076072692871,-0.7542757987976074,0,0,0
1.958495020866394,0.20978450775146484,-0.7562215924263,0,0,0
1.9540190696716309,0.20189493894577026,-0.7559442520141602,0,0,0
1.9563827514648438,0.2023923695087433,-0.7552416324615479,0,0,0
1.9616533517837524,0.20318466424942017,-0.7537401914596558,0,0,0
1.972211480140686,0.202842578291893,-0.7520754933357239,0,0,0
1.979565143585205,0.2019246518611908,-0.7505412697792053,0,0,0
1.9808164834976196,0.19781771302223206,-0.7489957809448242,0,0,0
1.9768829345703125,0.20056290924549103,-0.744637131690979,0,0,0
1.9643700122833252,0.21023648977279663,-0.7406032085418701,0,0,0
1.9568649530410767,0.22125107049942017,-0.7422854900360107,0,0,0
1.953604817390442,0.22454077005386353,-0.7487920522689819,0,0,0
1.9505070447921753,0.2193143516778946,-0.750440239906311,0,0,0
1.94136643409729,0.20907695591449738,-0.7510195970535278,0,0,0
1.9442458152770996,0.19908705353736877,-0.7531905174255371,0,0,0
1.967928171157837,0.18744874000549316,-0.7549692988395691,0,0,0
1.9800139665603638,0.1784609705209732,-0.7491085529327393,0,0,0
1.9845783710479736,0.18201738595962524,-0.7445106506347656,0,0,0
1.9920918941497803,0.19625332951545715,-0.5483624935150146,0,0,0
2.030085802078247,0.22373628616333008,-0.2995985448360443,0,0,0
2.097884178161621,0.2636583149433136,-0.1375778317451477,0,0,0
2.1782419681549072,0.2881304919719696,-0.08376999199390411,0,0,0
2.2958312034606934,0.28694668412208557,-0.14165285229682922,0,0,0
2.4328389167785645,0.2644273042678833,-0.28952258825302124,0,0,0
2.574070692062378,0.2343350499868393,-0.5062248706817627,0,0,0
2.6269705295562744,0.204936683177948,-0.66645747423172,0,0,0
2.4858665466308594,0.1977604627609253,-0.716935932636261,0,0,0
2.305172920227051,0.2117380052804947,-0.7376914024353027,0,0,0
2.169731855392456,0.21511994302272797,-0.7464237809181213,0,0,0
2.0737171173095703,0.19847583770751953,-0.7446494698524475,0,0,0
2.009876251220703,0.1793772578239441,-0.7452222108840942,0,0,0
1.97694993019104,0.17729510366916656,-0.7476962208747864,0,0,0
1.9670813083648682,0.17918679118156433,-0.7485458850860596,0,0,0
1.9681495428085327,0.17722611129283905,-0.7480363249778748,0,0,0
1.970145583152771,0.1700153350830078,-0.7459115386009216,0,0,0
1.9684765338897705,0.16944807767868042,-0.7434762716293335,0,0,0
1.9697247743606567,0.17563605308532715,-0.7381448745727539,0,0,0
1.974866271018982,0.17868325114250183,-0.7373343110084534,0,0,0
1.9756990671157837,0.18428748846054077,-0.7403173446655273,0,0,0
1.9759259223937988,0.18806055188179016,-0.7423365116119385,0,0,0
1.9765266180038452,0.19165275990962982,-0.7423233389854431,0,0,0
1.9773240089416504,0.18710394203662872,-0.743257462978363,0,0,0
1.9788117408752441,0.19168829917907715,-0.7508230209350586,0,0,0
1.982083797454834,0.20209692418575287,-0.7532734274864197,0,0,0
1.9859391450881958,0.19889721274375916,-0.7506736516952515,0,0,0
1.9902350902557373,0.2006223499774933,-0.7512434720993042,0,0,0
1.9886506795883179,0.2216559648513794,-0.7477355003356934,0,0,0
1.9838947057724,0.21432960033416748,-0.7474764585494995,0,0,0
1.9868611097335815,0.19778671860694885,-0.7465707659721375,0,0,0
1.992696762084961,0.18744122982025146,-0.7510688900947571,0,0,0
1.991957187652588,0.18564575910568237,-0.7537513375282288,0,0,0
1.9938660860061646,0.18171605467796326,-0.7536192536354065,0,0,0
1.9925256967544556,0.18786290287971497,-0.7517762184143066,0,0,0
1.9874820709228516,0.19392140209674835,-0.7487447261810303,0,0,0
1.983802318572998,0.19558365643024445,-0.7465049028396606,0,0,0
1.985607624053955,0.192897766828537,-0.7490971088409424,0,0,0
1.9886058568954468,0.18325760960578918,-0.74886155128479,0,0,0
1.9916784763336182,0.18153570592403412,-0.7483609318733215,0,0,0
1.9896501302719116,0.18210041522979736,-0.7485291957855225,0,0,0
1.989112377166748,0.17971667647361755,-0.7506722211837769,0,0,0
1.9869842529296875,0.1826287806034088,-0.7500419020652771,0,0,0
1.9764264822006226,0.19166848063468933,-0.7500246167182922,0,0,0
1.9700813293457031,0.19297705590724945,-0.752311110496521,0,0,0
1.9688634872436523,0.18849395215511322,-0.7497605681419373,0,0,0
1.9784901142120361,0.19519487023353577,-0.7519336342811584,0,0,0
1.9858708381652832,0.1956576704978943,-0.7519044280052185,0,0,0
1.9877183437347412,0.1908687949180603,-0.74868243932724,0,0,0
2.0040674209594727,0.19413188099861145,-0.7464883327484131,0,0,0
2.0047872066497803,0.19821247458457947,-0.7429782748222351,0,0,0
1.9772303104400635,0.1875375360250473,-0.7410159111022949,0,0,0
1.9673110246658325,0.1755852997303009,-0.7424278259277344,0,0,0
1.9718501567840576,0.18357330560684204,-0.7477173209190369,0,0,0
1.9815433025360107,0.17466339468955994,-0.7458242774009705,0,0,0
1.9895049333572388,0.16193559765815735,-0.7415164113044739,0,0,0
1.9920002222061157,0.16379918158054352,-0.7394921183586121,0,0,0
1.9980363845825195,0.17029352486133575,-0.7393603324890137,0,0,0
2.003377676010132,0.17110249400138855,-0.7433117032051086,0,0,0
2.002276659011841,0.1797441840171814,-0.6204739212989807,0,0,0
2.023944139480591,0.19082321226596832,-0.4647580087184906,0,0,0
2.0642051696777344,0.21142509579658508,-0.19881899654865265,0,0,0
2.080127477645874,0.19692851603031158,0.2404436469078064,0,0,0
2.1097681522369385,0.16390939056873322,0.5691456198692322,0,0,0
2.14768648147583,0.13992935419082642,0.7951639294624329,0,0,0
2.1805813312530518,0.11653843522071838,0.8756701946258545,0,0,0
2.210092544555664,0.09542147070169449,0.8000657558441162,0,0,0
2.2363805770874023,0.07643373310565948,0.6277215480804443,0,0,0
2.2849907875061035,0.03464886546134949,0.2689022719860077,0,0,0
2.3071951866149902,0.010415483266115189,0.14416944980621338,0,0,0
2.327348470687866,-0.015401702374219894,0.06689035892486572,0,0,0
2.3456339836120605,-0.04298072308301926,0.030512433499097824,0,0,0
2.362210273742676,-0.07260282337665558,0.02319900132715702,0,0,0
2.376739263534546,-0.1034921407699585,0.034943196922540665,0,0,0
2.3889667987823486,-0.13496775925159454,0.05672691762447357,0,0,0
2.3994555473327637,-0.16825272142887115,0.08039608597755432,0,0,0
2.4079320430755615,-0.20265008509159088,0.10247774422168732,0,0,0
2.414290428161621,-0.23804156482219696,0.12074156850576401,0,0,0
2.418424606323242,-0.2744210660457611,0.1346248984336853,0,0,0
2.262427568435669,-0.04600699245929718,0.14427410066127777,0,0,0
2.1376194953918457,0.13910165429115295,0.153811976313591,0,0,0
2.0876779556274414,0.2161397635936737,0.16154250502586365,0,0,0
2.068791389465332,0.24677793681621552,0.1675294190645218,0,0,0
2.062039613723755,0.2585259974002838,0.1728450059890747,0,0,0
2.0608839988708496,0.2605956196784973,0.17696350812911987,0,0,0
2.061816930770874,0.258993923664093,0.18035539984703064,0,0,0
2.0632030963897705,0.25636833906173706,0.1832168698310852,0,0,0
2.0647330284118652,0.2535731792449951,0.18557944893836975,0,0,0
2.0662713050842285,0.2508432865142822,0.187763974070549,0,0,0
2.067732334136963,0.2482462078332901,0.18973559141159058,0,0,0
2.069319486618042,0.2458953559398651,0.19172903895378113,0,0,0
2.0707240104675293,0.24390685558319092,0.19359742105007172,0,0,0
2.0720953941345215,0.24218899011611938,0.19521118700504303,0,0,0
2.0735130310058594,0.24043205380439758,0.19662903249263763,0,0,0
2.0746755599975586,0.23865698277950287,0.1977711170911789,0,0,0
2.0754716396331787,0.23719069361686707,0.19852055609226227,0,0,0
2.0762271881103516,0.23586006462574005,0.1990784853696823,0,0,0
2.076936960220337,0.23481014370918274,0.1996327042579651,0,0,0
2.0773322582244873,0.2342313528060913,0.20004531741142273,0,0,0
2.077899217605591,0.23393750190734863,0.20045892894268036,0,0,0
2.078608751296997,0.23371422290802002,0.20103859901428223,0,0,0
2.079371929168701,0.23350468277931213,0.20134961605072021,0,0,0
2.08024001121521,0.23339614272117615,0.20149022340774536,0,0,0
2.081028461456299,0.23343008756637573,0.20192542672157288,0,0,0
2.0816447734832764,0.23331475257873535,0.2026328593492508,0,0,0
2.08240008354187,0.23302742838859558,0.2034589648246765,0,0,0
2.0831713676452637,0.2325432002544403,0.2043338567018509,0,0,0
2.083850145339966,0.23207710683345795,0.2052934318780899,0,0,0
2.0841238498687744,0.2319207787513733,0.206189826130867,0,0,0
2.083951711654663,0.23192328214645386,0.2067234218120575,0,0,0
2.083983898162842,0.2321062684059143,0.20708078145980835,0,0,0
2.0840976238250732,0.2322670817375183,0.20766782760620117,0,0,0
2.0841636657714844,0.23223817348480225,0.2087809294462204,0,0,0
2.084292411804199,0.23188136518001556,0.21031491458415985,0,0,0
2.0844099521636963,0.23137062788009644,0.21169964969158173,0,0,0
2.0844178199768066,0.23112647235393524,0.2129431515932083,0,0,0
2.084385871887207,0.2309623807668686,0.21404878795146942,0,0,0
2.084615468978882,0.23079955577850342,0.21489644050598145,0,0,0
2.084841251373291,0.2307441681623459,0.21579603850841522,0,0,0
2.085085153579712,0.2307267189025879,0.21679186820983887,0,0,0
2.0852293968200684,0.23069119453430176,0.21780383586883545,0,0,0
2.085394859313965,0.23055918514728546,0.2187940627336502,0,0,0
2.0853750705718994,0.23061779141426086,0.21956047415733337,0,0,0
2.0853850841522217,0.23074905574321747,0.22032351791858673,0,0,0
2.0851891040802,0.2305939942598343,0.22128769755363464,0,0,0
2.084902286529541,0.2304895520210266,0.222285658121109,0,0,0
2.0846524238586426,0.2304624319076538,0.22313058376312256,0,0,0
2.0844881534576416,0.2302795946598053,0.2237326055765152,0,0,0
2.0845792293548584,0.22992929816246033,0.22423192858695984,0,0,0
2.0850472450256348,0.2294979691505432,0.22476717829704285,0,0,0
2.085552930831909,0.22917482256889343,0.22524088621139526,0,0,0
2.085752487182617,0.22900080680847168,0.22590871155261993,0,0,0
2.0857181549072266,0.22910788655281067,0.2265430986881256,0,0,0
2.085683584213257,0.22942829132080078,0.22713281214237213,0,0,0
2.085721731185913,0.22967511415481567,0.22782689332962036,0,0,0
2.085758924484253,0.22997796535491943,0.22851777076721191,0,0,0
2.085836172103882,0.23012088239192963,0.22934992611408234,0,0,0
2.0856785774230957,0.22986827790737152,0.2301914244890213,0,0,0
2.0854332447052,0.22998206317424774,0.23097915947437286,0,0,0
2.085509777069092,0.230330228805542,0.2319197654724121,0,0,0
2.085858106613159,0.23053401708602905,0.23292726278305054,0,0,0
2.08632493019104,0.23071913421154022,0.23385542631149292,0,0,0
2.0865345001220703,0.23091363906860352,0.23457038402557373,0,0,0
2.0865635871887207,0.23140695691108704,0.23530489206314087,0,0,0
2.0864694118499756,0.23180904984474182,0.23616378009319305,0,0,0
2.08630108833313,0.23212814331054688,0.23710888624191284,0,0,0
2.085939884185791,0.23240286111831665,0.23830334842205048,0,0,0
2.0854907035827637,0.23257893323898315,0.2395881712436676,0,0,0
2.085139036178589,0.2324216216802597,0.2409508228302002,0,0,0
2.085071325302124,0.23219269514083862,0.24212363362312317,0,0,0
2.0848987102508545,0.23220710456371307,0.24319034814834595,0,0,0
2.084808588027954,0.23230867087841034,0.24433718621730804,0,0,0
2.0849344730377197,0.23242953419685364,0.24565847218036652,0,0,0
2.085099697113037,0.23247438669204712,0.2468923032283783,0,0,0
2.08500075340271,0.23228442668914795,0.2477351576089859,0,0,0
2.0847327709198,0.23210519552230835,0.24849547445774078,0,0,0
2.0845394134521484,0.2319449633359909,0.24943536520004272,0,0,0
2.0843591690063477,0.23179489374160767,0.250434011220932,0,0,0
2.083982229232788,0.23175621032714844,0.2513570189476013,0,0,0
2.0836379528045654,0.23185762763023376,0.2524968981742859,0,0,0
2.0835094451904297,0.2319326549768448,0.253743976354599,0,0,0
2.0834755897521973,0.23173734545707703,0.25473299622535706,0,0,0
2.08341646194458,0.23157799243927002,0.2555043697357178,0,0,0
2.083174467086792,0.23147733509540558,0.2561427652835846,0,0,0
2.083024263381958,0.23145060241222382,0.25695791840553284,0,0,0
2.0828840732574463,0.2314693033695221,0.2578546404838562,0,0,0
2.0825746059417725,0.23147273063659668,0.2585601508617401,0,0,0
2.082231283187866,0.23112797737121582,0.25903958082199097,0,0,0
2.082231283187866,0.23112797737121582,0.25903958082199097,0,0,0
2.082174301147461,0.23084667325019836,0.2594982087612152,0,0,0
2.082094669342041,0.23094835877418518,0.25999170541763306,0,0,0
2.082186460494995,0.2311505824327469,0.26068100333213806,0,0,0
2.0825436115264893,0.23120130598545074,0.2615728974342346,0,0,0
2.0841739177703857,0.2304714173078537,0.2619825303554535,0,0,0
2.0864408016204834,0.22939148545265198,0.26241886615753174,0,0,0
2.0877437591552734,0.22887104749679565,0.2632083594799042,0,0,0
2.0879404544830322,0.22884713113307953,0.26397645473480225,0,0,0
2.087590217590332,0.2290046364068985,0.2646277844905853,0,0,0
2.087721824645996,0.2287367731332779,0.2651709020137787,0,0,0
2.090765953063965,0.22746270895004272,0.26419100165367126,0,0,0
2.0981664657592773,0.22540442645549774,0.26248306035995483,0,0,0
2.104189395904541,0.2241886407136917,0.2610422968864441,0,0,0
2.105584144592285,0.22409221529960632,0.25896507501602173,0,0,0
2.1043028831481934,0.22457745671272278,0.25606903433799744,0,0,0
2.102966785430908,0.22476178407669067,0.25308147072792053,0,0,0
2.103224277496338,0.22346921265125275,0.2506984770298004,0,0,0
2.1052026748657227,0.22053290903568268,0.2493603527545929,0,0,0
2.1074323654174805,0.21821725368499756,0.24851790070533752,0,0,0
2.1085333824157715,0.21771714091300964,0.24740813672542572,0,0,0
2.106717586517334,0.21986520290374756,0.24428240954875946,0,0,0
2.105224132537842,0.22093015909194946,0.24207761883735657,0,0,0
2.104403018951416,0.22153198719024658,0.24020551145076752,0,0,0
2.1049156188964844,0.221230611205101,0.2388983517885208,0,0,0
2.1063554286956787,0.2204415500164032,0.23816508054733276,0,0,0
2.10880446434021,0.21938514709472656,0.23738650977611542,0,0,0
2.110964298248291,0.2192300707101822,0.23660370707511902,0,0,0
2.1108288764953613,0.2201380729675293,0.23593157529830933,0,0,0
2.1089065074920654,0.22127658128738403,0.23544026911258698,0,0,0
2.1061794757843018,0.22215448319911957,0.23497861623764038,0,0,0
2.1034469604492188,0.2228957712650299,0.23452717065811157,0,0,0
2.1017205715179443,0.22322450578212738,0.23400647938251495,0,0,0
2.102220296859741,0.22227877378463745,0.23343689739704132,0,0,0
2.1043341159820557,0.22041086852550507,0.2335626482963562,0,0,0
2.105839252471924,0.22080443799495697,0.2347777783870697,0,0,0
2.1008713245391846,0.2234591543674469,0.23717789351940155,0,0,0
2.0924816131591797,0.2247028946876526,0.23903854191303253,0,0,0
2.0862107276916504,0.22388127446174622,0.2402607500553131,0,0,0
2.0836403369903564,0.22239647805690765,0.24262897670269012,0,0,0
2.084465265274048,0.22098782658576965,0.24762758612632751,0,0,0
2.0874454975128174,0.21809351444244385,0.2526451349258423,0,0,0
2.093414068222046,0.21306262910366058,0.2486485093832016,0,0,0
2.1018059253692627,0.20583972334861755,0.23081433773040771,0,0,0
2.097259998321533,0.205234095454216,0.19978545606136322,0,0,0
2.0504190921783447,0.2114080786705017,0.14964447915554047,0,0,0
1.9470269680023193,0.23454119265079498,0.0247301384806633,0,0,0
1.8174489736557007,0.2841579020023346,-0.18361824750900269,0,0,0
1.7050522565841675,0.3392368257045746,-0.42081278562545776,0,0,0
1.6581428050994873,0.3510958254337311,-0.6029233932495117,0,0,0
1.635350227355957,0.31427377462387085,-0.7554748058319092,0,0,0
1.5969263315200806,0.28705450892448425,-0.8779605031013489,0,0,0
1.5583417415618896,0.3041120171546936,-0.949415385723114,0,0,0
1.5434200763702393,0.3552239239215851,-0.9819524884223938,0,0,0
1.5235648155212402,0.44191214442253113,-0.9881067276000977,0,0,0
1.4864492416381836,0.5026928782463074,-0.9706189632415771,0,0,0
1.4122183322906494,0.5051266551017761,-0.9405427575111389,0,0,0
1.2983781099319458,0.502242922782898,-0.9083445072174072,0,0,0
1.1221295595169067,0.5083136558532715,-0.8985307812690735,0,0,0
0.9600817561149597,0.5185480713844299,-0.9303123354911804,0,0,0
0.8598309755325317,0.5227774381637573,-0.9757985472679138,0,0,0
0.7740476727485657,0.5149739980697632,-1.0225328207015991,0,0,0
0.6512798070907593,0.4754350185394287,-1.0550624132156372,0,0,0
0.5442795157432556,0.42013195157051086,-1.0981484651565552,0,0,0
0.5060017704963684,0.3509973883628845,-1.2021827697753906,0,0,0
0.5263696312904358,0.26339688897132874,-1.329880952835083,0,0,0
0.5303727984428406,0.14053238928318024,-1.4655015468597412,0,0,0
0.5109745860099792,-0.007912574335932732,-1.6385536193847656,0,0,0
0.5079778432846069,-0.16239497065544128,-1.8156065940856934,0,0,0
-0.0430048406124115,-0.03229899704456329,-0.025130853056907654,0,0,0
-0.043003931641578674,-0.032298870384693146,-0.02512168698012829,0,0,0
-0.04300587624311447,-0.03229956328868866,-0.02510920725762844,0,0,0
-0.04300769791007042,-0.0323004350066185,-0.02509230002760887,0,0,0
-0.04301075264811516,-0.032299283891916275,-0.02507978305220604,0,0,0
-0.043014828115701675,-0.03229915350675583,-0.025067739188671112,0,0,0
-0.04302438721060753,-0.03229145705699921,-0.025052594020962715,0,0,0
-0.043033454567193985,-0.03228307515382767,-0.02504395693540573,0,0,0
-0.04305197671055794,-0.0322701558470726,-0.02503707818686962,0,0,0
-0.04306994378566742,-0.032259270548820496,-0.02503291144967079,0,0,0
-0.04309195280075073,-0.03224864602088928,-0.02503088302910328,0,0,0
-0.04311550408601761,-0.0322348028421402,-0.025026602670550346,0,0,0
-0.043144989758729935,-0.03221336007118225,-0.02502273954451084,0,0,0
-0.04316100478172302,-0.03219658136367798,-0.02502288669347763,0,0,0
-0.043176084756851196,-0.03217940405011177,-0.025029461830854416,0,0,0
-0.04319291561841965,-0.03215271234512329,-0.025036893784999847,0,0,0
-0.043202221393585205,-0.03213443607091904,-0.02504037693142891,0,0,0
-0.04320859536528587,-0.032116495072841644,-0.025041664019227028,0,0,0
-0.04321441426873207,-0.03209627419710159,-0.025037996470928192,0,0,0
-0.043215978890657425,-0.03208441659808159,-0.025027520954608917,0,0,0
-0.04321605712175369,-0.03207390382885933,-0.02501067891716957,0,0,0
-0.04321613535284996,-0.03206086531281471,-0.024982446804642677,0,0,0
-0.04321562498807907,-0.032053954899311066,-0.024958083406090736,0,0,0
-0.04321543499827385,-0.032047711312770844,-0.02493283525109291,0,0,0
-0.043215811252593994,-0.032044053077697754,-0.024899860844016075,0,0,0
-0.043215349316596985,-0.03204138204455376,-0.024874471127986908,0,0,0
-0.043214429169893265,-0.032041825354099274,-0.024853035807609558,0,0,0
-0.043212369084358215,-0.032042887061834335,-0.024830836802721024,0,0,0
-0.0432092659175396,-0.03204856067895889,-0.024800946936011314,0,0,0
-0.043210577219724655,-0.03205522894859314,-0.024779081344604492,0,0,0
-0.043213777244091034,-0.03205917030572891,-0.02475963905453682,0,0,0
-0.04321647807955742,-0.03206516057252884,-0.02473568543791771,0,0,0
-0.043220505118370056,-0.032073136419057846,-0.024722721427679062,0,0,0
-0.04322518780827522,-0.032079972326755524,-0.024708902463316917,0,0,0
-0.0432315319776535,-0.03208661451935768,-0.024688739329576492,0,0,0
-0.04323716461658478,-0.03209249675273895,-0.024669228121638298,0,0,0
-0.04324554651975632,-0.03209578990936279,-0.024647492915391922,0,0,0
-0.043254971504211426,-0.03209785372018814,-0.024624258279800415,0,0,0
-0.043266020715236664,-0.03209570422768593,-0.024587810039520264,0,0,0
-0.04327145218849182,-0.032089732587337494,-0.024560369551181793,0,0,0
-0.042706262320280075,-0.03126303106546402,-0.024970242753624916,0,0,0
-0.042700860649347305,-0.03127138316631317,-0.024965954944491386,0,0,0
-0.04269851744174957,-0.031280919909477234,-0.024960488080978394,0,0,0
-0.042731285095214844,-0.03133414685726166,-0.024889690801501274,0,0,0
-0.04269735515117645,-0.03131241351366043,-0.024768836796283722,0,0,0
-0.04265499860048294,-0.03128631412982941,-0.024621441960334778,0,0,0
-0.04265162721276283,-0.03128126636147499,-0.024674884974956512,0,0,0
-0.04273911193013191,-0.03135813772678375,-0.024720503017306328,0,0,0
-0.04283887520432472,-0.03153996542096138,-0.02480912394821644,0,0,0
-0.04285728186368942,-0.03164060041308403,-0.02497076988220215,0,0,0
-0.04291822761297226,-0.03161486238241196,-0.02514481171965599,0,0,0
-0.042997926473617554,-0.03153511509299278,-0.02505047619342804,0,0,0
-0.04298160970211029,-0.03142397850751877,-0.02490897662937641,0,0,0
-0.042951133102178574,-0.03133346885442734,-0.02482052892446518,0,0,0
-0.043051108717918396,-0.03118787333369255,-0.024733927100896835,0,0,0
-0.043169837445020676,-0.03101343661546707,-0.024458881467580795,0,0,0
-0.04317835718393326,-0.03090222179889679,-0.02432401478290558,0,0,0
-0.043150193989276886,-0.030864432454109192,-0.024295305833220482,0,0,0
-0.043025556951761246,-0.030842091888189316,-0.024350451305508614,0,0,0
-0.04288241267204285,-0.031002778559923172,-0.024327952414751053,0,0,0
-0.0428503155708313,-0.031110944226384163,-0.024278713390231133,0,0,0
-0.04290638864040375,-0.031073257327079773,-0.024310417473316193,0,0,0
-0.04298383742570877,-0.031124241650104523,-0.0244190264493227,0,0,0
-0.042966075241565704,-0.031086057424545288,-0.024451561272144318,0,0,0
-0.04292578250169754,-0.031050050631165504,-0.024512266740202904,0,0,0
-0.04290500655770302,-0.03109130822122097,-0.02468888834118843,0,0,0
-0.042838819324970245,-0.031157255172729492,-0.024847468361258507,0,0,0
-0.04284205287694931,-0.03129999339580536,-0.024980459362268448,0,0,0
-0.04278799891471863,-0.031314700841903687,-0.02489749900996685,0,0,0
-0.042779937386512756,-0.03127802908420563,-0.024776805192232132,0,0,0
-0.04276178777217865,-0.0313236378133297,-0.024810168892145157,0,0,0
-0.042805153876543045,-0.03139491379261017,-0.024964096024632454,0,0,0
-0.04289086535573006,-0.031379975378513336,-0.025083672255277634,0,0,0
-0.043068185448646545,-0.03136250376701355,-0.025075456127524376,0,0,0
-0.04373089596629143,-0.03123306855559349,-0.024966049939393997,0,0,0
-0.04418132081627846,-0.031160760670900345,-0.024820387363433838,0,0,0
-0.043940138071775436,-0.031192656606435776,-0.02470468543469906,0,0,0
-0.043514419347047806,-0.031210530549287796,-0.024623557925224304,0,0,0
-0.043370120227336884,-0.03129171207547188,-0.024416165426373482,0,0,0
-0.04328135401010513,-0.03135998174548149,-0.024235492572188377,0,0,0
-0.04315511882305145,-0.031312569975852966,-0.024077601730823517,0,0,0
-0.04298816993832588,-0.03136102110147476,-0.024174954742193222,0,0,0
-0.03851080313324928,-0.0314987450838089,-0.034769076853990555,0,0,0
-0.0014313273131847382,-0.028854917734861374,-0.08583919703960419,0,0,0
0.03559365123510361,-0.030704986304044724,-0.20655420422554016,0,0,0
0.08479487895965576,-0.039388492703437805,-0.38848966360092163,0,0,0
0.12463764101266861,-0.052677005529403687,-0.5634780526161194,0,0,0
0.10435625165700912,-0.06051251292228699,-0.6441000699996948,0,0,0
0.08580957353115082,-0.0663769394159317,-0.6852121353149414,0,0,0
0.07814718782901764,-0.06400277465581894,-0.7080573439598083,0,0,0
0.07632526755332947,-0.05473620444536209,-0.7233766317367554,0,0,0
0.07117925584316254,-0.04389140009880066,-0.7279293537139893,0,0,0
0.05969903990626335,-0.03556700423359871,-0.7252733707427979,0,0,0
0.04405507072806358,-0.034430935978889465,-0.7182863354682922,0,0,0
0.02680608630180359,-0.035887062549591064,-0.7121485471725464,0,0,0
0.006077971309423447,-0.041820283979177475,-0.7050119042396545,0,0,0
0.01079709455370903,-0.04317275434732437,-0.7036256790161133,0,0,0
0.018623515963554382,-0.052782267332077026,-0.7151636481285095,0,0,0
0.020660817623138428,-0.05428686738014221,-0.7242360711097717,0,0,0
0.022074740380048752,-0.04821141064167023,-0.7260296940803528,0,0,0
0.019123107194900513,-0.04482952505350113,-0.7219631671905518,0,0,0
0.009717617183923721,-0.04291762411594391,-0.7149214744567871,0,0,0
0.0025593675673007965,-0.04083985835313797,-0.7083126902580261,0,0,0
0.001932583749294281,-0.04049114137887955,-0.7048605680465698,0,0,0
0.0021308958530426025,-0.03551146388053894,-0.7049875259399414,0,0,0
0.0028713978826999664,-0.03310518339276314,-0.7070793509483337,0,0,0
0.0012101531028747559,-0.035654544830322266,-0.7094982862472534,0,0,0
-0.002211008220911026,-0.0395081602036953,-0.7118019461631775,0,0,0
-0.0027873851358890533,-0.033849701285362244,-0.7134187817573547,0,0,0
-0.0010368600487709045,-0.028613096103072166,-0.7129296660423279,0,0,0
-0.003057628870010376,-0.03624706715345383,-0.7124122977256775,0,0,0
0.007049087435007095,-0.0423731803894043,-0.7150535583496094,0,0,0
0.014428213238716125,-0.03988681733608246,-0.7177118062973022,0,0,0
0.02236228808760643,-0.0299285389482975,-0.72043377161026,0,0,0
0.021275177597999573,-0.016688473522663116,-0.721477746963501,0,0,0
0.009893212467432022,-0.0048844460397958755,-0.723105251789093,0,0,0
0.017261993139982224,-0.010047734715044498,-0.7239147424697876,0,0,0
0.032569367438554764,-0.01943891867995262,-0.7252132296562195,0,0,0
