2.968794584274292,-2.9666268825531006,-2.982015609741211,2.61929988861084,0.045144785195589066,-2.998622417449951
2.9763150215148926,-2.9574668407440186,-2.9682562351226807,2.614806652069092,0.054441869258880615,-3.013124704360962
2.9846439361572266,-2.960944175720215,-2.9635963439941406,2.612582206726074,0.06041378155350685,-3.0136117935180664
2.9921185970306396,-2.9761643409729004,-2.968517780303955,2.6094892024993896,0.0569576732814312,-3.0105957984924316
3.0007293224334717,-2.988391160964966,-2.974646806716919,2.591292142868042,0.045273374766111374,-3.0198869705200195
3.019772529602051,-2.9890263080596924,-2.9744062423706055,2.5768637657165527,0.04205583408474922,-3.024614095687866
3.023411273956299,-2.9845693111419678,-2.9662575721740723,2.5747509002685547,0.03352632001042366,-3.0340592861175537
3.0260181427001953,-2.985351324081421,-2.9692468643188477,2.569138765335083,0.01632302813231945,-3.037302255630493
3.0137038230895996,-3.0038564205169678,-2.989875078201294,2.585479497909546,0.0006874897517263889,-3.034396171569824
3.019352436065674,-3.008193254470825,-3.0170931816101074,2.611309051513672,-0.01304653100669384,-3.0589303970336914
3.032381534576416,-3.0050196647644043,-3.02209210395813,2.633939027786255,-0.019015099853277206,-3.073773145675659
3.0451536178588867,-3.0005245208740234,-3.006107807159424,2.6422877311706543,-0.012173703871667385,-3.0761301517486572
3.043238639831543,-3.002152681350708,-3.0031278133392334,2.6508030891418457,-0.00913423951715231,-3.0730202198028564
3.0363311767578125,-2.994980573654175,-2.9972214698791504,2.633798360824585,0.0033038754481822252,-3.0390002727508545
3.0202648639678955,-2.9738664627075195,-2.9646010398864746,2.6117453575134277,0.0062928698025643826,-3.0143349170684814
3.0050249099731445,-2.9510750770568848,-2.94474196434021,2.59745454788208,-0.009107336401939392,-3.012371063232422
2.985612154006958,-2.9320316314697266,-2.951390266418457,2.593709707260132,-0.022981110960245132,-3.0206758975982666
2.9739186763763428,-2.921755790710449,-2.9489617347717285,2.595369577407837,-0.02501583658158779,-3.0035147666931152
2.963517665863037,-2.9240152835845947,-2.9464876651763916,2.600391387939453,-0.00823748018592596,-3.008371353149414
2.969282865524292,-2.9327471256256104,-2.956798791885376,2.6062471866607666,0.03298329934477806,-3.022522449493408
2.967489242553711,-2.95365571975708,-2.997741460800171,2.618690013885498,0.04759269952774048,-3.0437700748443604
2.9718592166900635,-2.987203359603882,-3.0226497650146484,2.6390397548675537,0.0382629856467247,-3.0406296253204346
2.9824626445770264,-3.0265908241271973,-3.006042003631592,2.6673521995544434,0.030503181740641594,-3.0215957164764404
2.99786639213562,-3.064483165740967,-2.9948678016662598,2.688948631286621,0.030044585466384888,-3.0236408710479736
3.0101051330566406,-3.077202081680298,-2.9988815784454346,2.6903185844421387,0.01973024010658264,-3.0194451808929443
3.0127532482147217,-3.0747878551483154,-2.994365692138672,2.6721792221069336,0.00626051239669323,-3.028184413909912
3.0030951499938965,-3.0781631469726562,-3.0085995197296143,2.657470226287842,0.0037853845860809088,-3.0301928520202637
2.993941307067871,-3.0643105506896973,-3.0085880756378174,2.656266927719116,-0.002586790593340993,-3.0116753578186035
2.9929065704345703,-3.0557188987731934,-3.0128912925720215,2.6464128494262695,-0.0051584867760539055,-2.9837450981140137
3.0062477588653564,-3.0386528968811035,-3.0111701488494873,2.6197125911712646,-0.003477467456832528,-2.98083758354187
3.0224769115448,-3.0264642238616943,-3.010462999343872,2.5993947982788086,-0.004332267213612795,-3.001431465148926
3.0426025390625,-3.0127296447753906,-3.028493642807007,2.578862190246582,0.005057228729128838,-3.013779640197754
3.0335283279418945,-3.017411470413208,-3.0101373195648193,2.5750997066497803,0.020576396957039833,-3.0321807861328125
3.023303270339966,-3.0179882049560547,-2.9912993907928467,2.5836148262023926,0.03651326149702072,-3.0294110774993896
3.0102505683898926,-3.0324437618255615,-2.9749462604522705,2.5921547412872314,0.0301683209836483,-3.0053353309631348
3.0128328800201416,-3.0459771156311035,-2.96950626373291,2.624335765838623,0.00893311481922865,-3.0146265029907227
3.0066440105438232,-3.054825782775879,-2.973118782043457,2.6518189907073975,0.0016076682368293405,-3.020085573196411
2.9842278957366943,-3.058560371398926,-2.9989571571350098,2.6609742641448975,0.00036056936369277537,-3.021498203277588
2.9534268379211426,-3.0567235946655273,-2.9967379570007324,2.6511642932891846,-0.004391573369503021,-3.024183750152588
2.937119245529175,-3.0423965454101562,-2.99967885017395,2.637860059738159,-0.004616796039044857,-3.0337729454040527
2.942819595336914,-3.0144526958465576,-2.991588830947876,2.6273744106292725,-0.002502815332263708,-3.01841402053833
2.9665472507476807,-2.99371337890625,-2.997715473175049,2.6361773014068604,-0.003237109864130616,-3.0062413215637207
2.985469341278076,-2.9794490337371826,-3.012829542160034,2.645500898361206,-0.0012879077112302184,-2.9967639446258545
3.0018160343170166,-2.9669904708862305,-3.0110080242156982,2.648087978363037,0.0015727127902209759,-3.002350330352783
2.921199321746826,-2.9752888679504395,-3.1033854484558105,2.6387317180633545,-0.002761565614491701,-3.0107247829437256
2.438042163848877,-2.998448371887207,-3.147360324859619,2.6361522674560547,-0.000486750272102654,-3.0267446041107178
1.6279575824737549,-3.0163300037384033,-3.1067819595336914,2.6380269527435303,-0.029228175058960915,-3.041196584701538
0.6229743361473083,-3.0225889682769775,-3.0373940467834473,2.682004451751709,-0.08452007174491882,-3.0374131202697754
-0.34872832894325256,-3.0167551040649414,-3.0020694732666016,2.740753173828125,-0.15373992919921875,-3.035196304321289
-1.2206331491470337,-3.0074925422668457,-2.9914984703063965,2.789456844329834,-0.23171405494213104,-3.0426368713378906
-1.9308886528015137,-3.0052175521850586,-2.9783871173858643,2.8409929275512695,-0.308905690908432,-3.0326342582702637
-2.4945602416992188,-3.014362335205078,-2.9550979137420654,2.8848581314086914,-0.378223180770874,-3.0218915939331055
-2.891028642654419,-3.0303711891174316,-2.94500470161438,2.9255144596099854,-0.5032633543014526,-3.008610486984253
-3.1507575511932373,-3.0394492149353027,-2.956109046936035,2.96537709236145,-0.6857461333274841,-2.994438648223877
-3.305234432220459,-3.0357539653778076,-2.9880545139312744,2.988072395324707,-0.9003150463104248,-3.0052649974823
-3.373744487762451,-3.016533613204956,-2.9844977855682373,2.981358289718628,-1.0970878601074219,-3.0154452323913574
-3.3877179622650146,-2.9947681427001953,-2.989360809326172,2.967050313949585,-1.2643704414367676,-3.0364632606506348
-3.3720171451568604,-2.9723470211029053,-2.996793031692505,2.964613914489746,-1.4029300212860107,-3.0519354343414307
-3.3348045349121094,-2.9681828022003174,-2.999150037765503,2.9699490070343018,-1.5570436716079712,-3.0691933631896973
-3.274430513381958,-2.9801483154296875,-2.993701219558716,2.9597256183624268,-1.7428842782974243,-3.0806002616882324
-3.1927130222320557,-2.9905343055725098,-2.9752840995788574,2.938868761062622,-1.923231601715088,-3.070481061935425
-3.11950421333313,-2.9993321895599365,-2.9726128578186035,2.9360647201538086,-2.075429916381836,-3.064603567123413
-3.0628278255462646,-3.0018465518951416,-2.987663984298706,2.9305272102355957,-2.221008777618408,-3.047727584838867
-3.008164167404175,-2.9848849773406982,-3.018218517303467,2.9335107803344727,-2.3751237392425537,-3.0410115718841553
-2.980309247970581,-2.988208055496216,-3.05952525138855,2.9266245365142822,-2.5230700969696045,-3.0391957759857178
-2.9713962078094482,-2.9920475482940674,-3.058992624282837,2.9208030700683594,-2.653543472290039,-3.043938636779785
-2.9517455101013184,-2.9903335571289062,-3.036860227584839,2.9149744510650635,-2.776916980743408,-3.0390563011169434
-2.9548537731170654,-2.9844250679016113,-3.015260934829712,2.878108263015747,-2.8662123680114746,-3.055875778198242
-2.959933280944824,-2.978686571121216,-3.0216469764709473,2.805438280105591,-2.9375827312469482,-3.066922664642334
-2.9723570346832275,-2.9826202392578125,-3.0234808921813965,2.7181894779205322,-2.9882962703704834,-3.0788838863372803
-2.988980531692505,-2.977132797241211,-3.0287411212921143,2.621405601501465,-3.0121896266937256,-3.078472375869751
-3.0018157958984375,-2.9620866775512695,-3.028606414794922,2.482182502746582,-3.0183207988739014,-3.0550053119659424
-3.0118210315704346,-2.950573205947876,-3.0528647899627686,2.3120839595794678,-3.020313262939453,-3.059150457382202
-3.0256426334381104,-2.9365689754486084,-3.071606397628784,2.1304008960723877,-3.016446828842163,-3.0807669162750244
-3.018791675567627,-2.9386165142059326,-3.0484588146209717,1.9561244249343872,-3.0247857570648193,-3.0927774906158447
-3.0018608570098877,-2.9450151920318604,-3.0398471355438232,1.834394097328186,-3.0393736362457275,-3.089742422103882
-3.004549026489258,-2.9544222354888916,-3.0205438137054443,1.7347867488861084,-3.05653977394104,-3.0832250118255615
-3.0104689598083496,-2.958603620529175,-3.0001916885375977,1.6000754833221436,-3.05303955078125,-3.0680344104766846
-3.0233347415924072,-2.958988666534424,-2.9691357612609863,1.4230366945266724,-3.0430045127868652,-3.052326202392578
-3.0330910682678223,-2.969045400619507,-2.9388036727905273,1.2412467002868652,-3.0348706245422363,-3.042029619216919
-3.036961078643799,-2.9830029010772705,-2.9392237663269043,1.069137454032898,-3.023613691329956,-3.031992197036743
-3.023158311843872,-2.9917240142822266,-2.9699554443359375,0.9093655347824097,-3.0110249519348145,-3.027387857437134
-2.990346670150757,-3.015796661376953,-2.9916648864746094,0.7516101598739624,-3.0033271312713623,-3.0354065895080566
-2.9614527225494385,-3.046409845352173,-3.0019800662994385,0.5705865621566772,-2.9986140727996826,-3.0284698009490967
-2.9549612998962402,-3.0570287704467773,-3.0197904109954834,0.3578699827194214,-2.99292254447937,-3.0308361053466797
-2.9563467502593994,-3.063398838043213,-3.0320966243743896,0.15288732945919037,-2.9921317100524902,-3.026211977005005
-2.958538055419922,-3.0609018802642822,-3.0406322479248047,-0.012383809313178062,-2.9904303550720215,-3.008810520172119
-2.9680936336517334,-3.0443546772003174,-3.0429530143737793,-0.12705624103546143,-2.9961836338043213,-2.9911727905273438
-2.9817066192626953,-3.03086256980896,-3.05415415763855,-0.23109595477581024,-3.00217866897583,-2.9695565700531006
-2.989954948425293,-3.0204014778137207,-3.0466501712799072,-0.3227795958518982,-3.002081871032715,-2.975177049636841
-2.994185447692871,-2.999081611633301,-3.025214195251465,-0.3797231912612915,-3.015207529067993,-2.9899561405181885
-3.0026357173919678,-2.9866583347320557,-3.0003225803375244,-0.42684298753738403,-3.0198092460632324,-3.0077102184295654
-3.0098955631256104,-2.972989559173584,-2.989898681640625,-0.46619850397109985,-3.010465145111084,-3.038228750228882
-3.001880168914795,-2.9627628326416016,-2.9667587280273438,-0.4864632487297058,-3.0058841705322266,-3.0500423908233643
-2.9977869987487793,-2.9592506885528564,-2.9669573307037354,-0.4951659142971039,-3.0165202617645264,-3.029724359512329
-2.9691786766052246,-2.9619250297546387,-2.976614236831665,-0.4907184839248657,-3.0323562622070312,-3.02028489112854
-2.977926731109619,-2.9744508266448975,-2.9882543087005615,-0.45561978220939636,-3.03694748878479,-3.0325706005096436
-2.9852898120880127,-2.9811511039733887,-2.996483564376831,-0.4184603989124298,-3.028482675552368,-3.022848606109619
-2.9713966846466064,-2.9828989505767822,-2.982015371322632,-0.372036337852478,-3.020591974258423,-3.0056347846984863
-2.963268280029297,-2.994173526763916,-2.971135139465332,-0.35000523924827576,-3.030522108078003,-3.0075557231903076
-2.980027198791504,-3.0014584064483643,-2.9944798946380615,-0.33350977301597595,-3.0432939529418945,-3.033812999725342
-2.983150005340576,-3.012922763824463,-3.019019842147827,-0.3275238573551178,-3.046739101409912,-3.0228116512298584
-2.9677391052246094,-3.0239615440368652,-3.031879186630249,-0.32031160593032837,-3.042201280593872,-2.9925551414489746
-2.975604295730591,-3.0295093059539795,-3.060377359390259,-0.31945356726646423,-3.0281567573547363,-3.006564140319824
-2.9770498275756836,-3.0335893630981445,-3.0650973320007324,-0.3191767632961273,-3.0063984394073486,-3.009838819503784
-2.9817795753479004,-3.0359160900115967,-3.0461506843566895,-0.3076058626174927,-2.9862921237945557,-3.0155386924743652
-2.9847307205200195,-3.0271263122558594,-3.0327415466308594,-0.3117285668849945,-2.9719903469085693,-3.023890733718872
-2.9793317317962646,-2.999321937561035,-3.0384602546691895,-0.3214479684829712,-2.962728977203369,-3.0214264392852783
-2.9753615856170654,-2.9761290550231934,-3.0353362560272217,-0.32039982080459595,-2.956587791442871,-3.001197338104248
-2.9858689308166504,-2.959583044052124,-3.0330026149749756,-0.32195550203323364,-2.964343786239624,-2.997241497039795
-2.992388963699341,-2.9547574520111084,-3.0253775119781494,-0.33142775297164917,-2.9771664142608643,-3.000621795654297
-2.992138147354126,-2.959786891937256,-3.0137429237365723,-0.3454693853855133,-2.991283655166626,-2.9925198554992676
-3.001202344894409,-2.9651002883911133,-3.020366907119751,-0.35940322279930115,-3.003967523574829,-2.9720749855041504
-3.016023635864258,-2.970628499984741,-3.0241334438323975,-0.36631351709365845,-3.0034902095794678,-2.9842021465301514
-3.0146796703338623,-2.993267297744751,-3.0008296966552734,-0.37016040086746216,-3.0120954513549805,-2.9845216274261475
-3.0047385692596436,-3.0077226161956787,-2.975513219833374,-0.34769895672798157,-3.021470785140991,-2.9702389240264893
-2.9933390617370605,-3.00688099861145,-2.966285467147827,-0.32764896750450134,-3.0196309089660645,-2.976449489593506
-2.975914478302002,-3.024184226989746,-2.9755423069000244,-0.3240012526512146,-2.9998950958251953,-3.0040013790130615
-2.9540481567382812,-3.037950277328491,-2.9680306911468506,-0.33782434463500977,-2.984078884124756,-3.0498414039611816
-2.946786642074585,-3.033557653427124,-2.971968412399292,-0.3463841676712036,-2.964060068130493,-3.057994842529297
-2.9375267028808594,-3.0238430500030518,-2.975111246109009,-0.33665528893470764,-2.9569029808044434,-3.019376277923584
-2.952468156814575,-3.0205583572387695,-2.9693186283111572,-0.32953518629074097,-2.9674947261810303,-2.997851848602295
-2.967052936553955,-3.0133631229400635,-2.9771625995635986,-0.34319987893104553,-2.9898264408111572,-2.9967808723449707
-2.993692398071289,-3.0167953968048096,-2.995757579803467,-0.34651368856430054,-3.0050852298736572,-3.0015618801116943
-3.0150840282440186,-3.022815465927124,-3.013756036758423,-0.35183173418045044,-3.0216617584228516,-3.010104179382324
-3.0156972408294678,-3.0316615104675293,-3.0468673706054688,-0.3585948646068573,-3.024261474609375,-3.010128974914551
-3.0007882118225098,-3.0332186222076416,-3.0356497764587402,-0.35888150334358215,-3.0272297859191895,-3.008453845977783
-2.9862959384918213,-3.0281600952148438,-3.0365304946899414,-0.35309848189353943,-3.022047519683838,-3.0102031230926514
-2.993288278579712,-3.0151686668395996,-3.026289701461792,-0.3374135494232178,-3.0157573223114014,-3.0057597160339355
-2.9900567531585693,-3.0077643394470215,-3.0250473022460938,-0.31764155626296997,-3.018923282623291,-2.990485191345215
-2.9785549640655518,-3.002007246017456,-3.021245002746582,-0.31528598070144653,-3.0183393955230713,-2.996145009994507
-2.961578607559204,-3.005272150039673,-3.0076992511749268,-0.30948910117149353,-3.0032551288604736,-2.9712629318237305
-2.949704885482788,-3.0083436965942383,-2.9908957481384277,-0.30619683861732483,-2.9898600578308105,-2.954960584640503
-2.946908712387085,-3.0000455379486084,-3.0015881061553955,-0.3187260329723358,-2.9776976108551025,-2.969768762588501
-2.954042434692383,-2.9871721267700195,-3.007103681564331,-0.3376324474811554,-2.9715428352355957,-2.9777753353118896
-2.9678356647491455,-2.977541208267212,-3.0083560943603516,-0.3540199398994446,-2.969146966934204,-2.971200704574585
-2.9699296951293945,-2.9680655002593994,-3.0032360553741455,-0.36195629835128784,-2.9646828174591064,-2.961822271347046
-2.9747371673583984,-2.987757444381714,-2.9872124195098877,-0.3820092976093292,-2.9618170261383057,-2.9702682495117188
-2.989311933517456,-3.0175442695617676,-2.96989107131958,-0.3953670859336853,-2.9779458045959473,-2.9769744873046875
-2.9987189769744873,-3.0436556339263916,-2.9655444622039795,-0.39751356840133667,-3.001293897628784,-2.9798707962036133
-2.989657402038574,-3.057257890701294,-2.960501194000244,-0.39649027585983276,-3.020737648010254,-2.9729604721069336
-2.9931154251098633,-3.059521436691284,-2.972341299057007,-0.39333009719848633,-3.035949230194092,-2.974895477294922
-3.009434938430786,-3.056476354598999,-2.988659143447876,-0.38460010290145874,-3.0529978275299072,-3.002312183380127
-3.0272295475006104,-3.0518903732299805,-2.9969661235809326,-0.363666296005249,-3.0622360706329346,-3.0478107929229736
-3.0208423137664795,-3.04534912109375,-3.015312433242798,-0.33741921186447144,-3.059217929840088,-3.0842368602752686
-3.018474817276001,-3.0321948528289795,-3.033061981201172,-0.3358915448188782,-3.059278726577759,-3.081648826599121
-3.0184831619262695,-3.0266826152801514,-3.021596670150757,-0.3251170814037323,-3.056875467300415,-3.0641801357269287
-3.0104331970214844,-3.0245461463928223,-3.008222818374634,-0.3247162401676178,-3.0583815574645996,-3.058206796646118
-3.0143280029296875,-3.023123025894165,-2.986907720565796,-0.33107781410217285,-3.0479960441589355,-3.0444374084472656
-3.0182759761810303,-3.017218828201294,-2.9703993797302246,-0.3349114954471588,-3.029921054840088,-3.0174591541290283
-3.0108232498168945,-3.009383201599121,-2.961691379547119,-0.34937986731529236,-3.006314754486084,-3.0132222175598145
-2.9968948364257812,-3.0096614360809326,-2.954969644546509,-0.3669748604297638,-2.9913032054901123,-3.0225653648376465
-2.989753484725952,-3.0035104751586914,-2.9542057514190674,-0.38580161333084106,-2.9767675399780273,-3.0153439044952393
-2.9744765758514404,-2.9958081245422363,-2.963324785232544,-0.3998635411262512,-2.9783713817596436,-3.015047788619995
-2.970595598220825,-2.987314462661743,-2.9824557304382324,-0.39440804719924927,-2.9868457317352295,-3.011789321899414
-2.9761688709259033,-2.9841747283935547,-3.010053873062134,-0.37788042426109314,-2.9981112480163574,-3.0061538219451904
-2.9887871742248535,-2.976822853088379,-3.0256378650665283,-0.3638346195220947,-3.0078036785125732,-3.0095009803771973
-3.002695083618164,-2.9777133464813232,-2.994363784790039,-0.34864726662635803,-3.0089309215545654,-3.026705741882324
-2.9966163635253906,-2.9675636291503906,-2.9857912063598633,-0.33779141306877136,-3.0152876377105713,-3.053623914718628
-2.984334945678711,-2.944694995880127,-2.9706509113311768,-0.3315795361995697,-3.0257537364959717,-3.0654780864715576
-2.977419376373291,-2.912381410598755,-2.9848015308380127,-0.3224697709083557,-3.023247480392456,-3.059427499771118
-2.968484878540039,-2.897783041000366,-3.004929542541504,-0.30211177468299866,-3.0204639434814453,-3.043058395385742
-2.968245506286621,-2.9007740020751953,-3.018073558807373,-0.2925514876842499,-3.0284132957458496,-3.0137691497802734
-2.9656097888946533,-2.9114339351654053,-3.017902135848999,-0.2857488989830017,-3.0363662242889404,-2.9967732429504395
-2.981942892074585,-2.929262638092041,-3.0240895748138428,-0.29252150654792786,-3.0321714878082275,-2.9917714595794678
-3.005872964859009,-2.9522979259490967,-3.039915084838867,-0.31969141960144043,-3.024850845336914,-3.0044498443603516
-3.023510456085205,-2.959590196609497,-3.0177242755889893,-0.3402254581451416,-3.018953323364258,-3.0131309032440186
-3.0386061668395996,-2.9611432552337646,-2.989384174346924,-0.3312123119831085,-3.0196173191070557,-3.003709077835083
-3.0414397716522217,-2.981196403503418,-2.982229709625244,-0.32266008853912354,-3.008132219314575,-3.0065269470214844
-3.0428194999694824,-2.992192268371582,-2.965197801589966,-0.3221818804740906,-3.0025644302368164,-2.994093179702759
-3.0237674713134766,-3.0113930702209473,-2.942186117172241,-0.32031914591789246,-3.0106725692749023,-3.0108864307403564
-2.9877772331237793,-3.0198259353637695,-2.940978527069092,-0.3293842375278473,-3.0183050632476807,-3.0366015434265137
-2.9571824073791504,-3.0114176273345947,-2.971663236618042,-0.33398813009262085,-3.018721103668213,-3.068498134613037
-2.9612362384796143,-2.999997854232788,-3.0140604972839355,-0.3375021517276764,-3.0235753059387207,-3.0739035606384277
-2.983060598373413,-2.9953510761260986,-3.029953718185425,-0.3393402099609375,-3.0487842559814453,-3.0626444816589355
-3.0067427158355713,-2.9933547973632812,-3.0489373207092285,-0.3352062404155731,-3.061499834060669,-3.0292177200317383
-3.020111560821533,-3.005521297454834,-3.040247917175293,-0.34064239263534546,-3.0561323165893555,-3.0083165168762207
-3.0163536071777344,-3.0148751735687256,-3.006108045578003,-0.33574989438056946,-3.0463478565216064,-3.0126020908355713
-3.0159711837768555,-3.0213565826416016,-2.9946072101593018,-0.3381582498550415,-3.030914545059204,-3.0279700756073
-3.011718511581421,-3.022557020187378,-3.0062177181243896,-0.35647279024124146,-3.0090677738189697,-3.0109241008758545
-3.023139476776123,-3.0292303562164307,-3.0226762294769287,-0.3839797377586365,-2.9921722412109375,-3.0011446475982666
-3.0343050956726074,-3.0420708656311035,-3.0225625038146973,-0.39155206084251404,-2.9876015186309814,-3.0142412185668945
-3.027456760406494,-3.054215669631958,-3.0459139347076416,-0.39559051394462585,-2.986788749694824,-2.993380546569824
-3.029268741607666,-3.0609941482543945,-3.061373710632324,-0.3873710334300995,-2.9945008754730225,-2.990157127380371
-3.0327391624450684,-3.063486099243164,-3.053056478500366,-0.38217154145240784,-3.003361225128174,-2.993621587753296
-3.0340287685394287,-3.07222843170166,-3.0486361980438232,-0.3700163662433624,-3.0209102630615234,-2.995035171508789
-3.0162506103515625,-3.062537670135498,-3.04180908203125,-0.3532644808292389,-3.037958860397339,-2.998335361480713
-2.9988996982574463,-3.03493070602417,-3.0327348709106445,-0.33890923857688904,-3.042405366897583,-2.9996888637542725
-2.997943162918091,-3.0064096450805664,-3.0199127197265625,-0.34082576632499695,-3.048370599746704,-3.01287841796875
-2.9966187477111816,-2.9902162551879883,-3.011983633041382,-0.3391113877296448,-3.059396505355835,-3.050403356552124
-3.0025582313537598,-2.9956490993499756,-3.0042591094970703,-0.32639142870903015,-3.0511178970336914,-3.0622148513793945
-3.0016024112701416,-2.9972567558288574,-2.9960520267486572,-0.3331158757209778,-3.031022787094116,-3.0615460872650146
-2.9991824626922607,-2.993375539779663,-2.982198715209961,-0.353282630443573,-3.0186896324157715,-3.0212268829345703
-2.9887917041778564,-2.993427276611328,-2.9742329120635986,-0.37443044781684875,-3.0036096572875977,-2.980630874633789
-2.9840221405029297,-2.9968056678771973,-2.9622058868408203,-0.3833574056625366,-2.9931180477142334,-2.985915184020996
-2.990846872329712,-3.0068087577819824,-2.943425416946411,-0.38176652789115906,-2.993441581726074,-2.99891996383667
-2.9813241958618164,-3.0146632194519043,-2.9424281120300293,-0.361333429813385,-2.9970057010650635,-2.992985486984253
-2.9716596603393555,-3.0266079902648926,-2.952165126800537,-0.35378730297088623,-2.996649980545044,-2.9815144538879395
-2.965616464614868,-3.026642084121704,-2.978860855102539,-0.36438801884651184,-3.0029220581054688,-2.9687347412109375
-2.9725143909454346,-3.035438299179077,-3.008450746536255,-0.3755395710468292,-3.0084869861602783,-2.9659433364868164
-2.988253116607666,-3.03542160987854,-3.02561354637146,-0.37578532099723816,-3.016634464263916,-2.9788637161254883
-2.9946396350860596,-3.031545400619507,-3.028513193130493,-0.3744408190250397,-3.027747631072998,-2.996713638305664
-2.986495018005371,-3.0231547355651855,-3.0070881843566895,-0.367828905582428,-3.0455117225646973,-3.00132155418396
-2.989044189453125,-3.0088560581207275,-3.014597177505493,-0.36928024888038635,-3.056962251663208,-2.998303174972534
-2.994891405105591,-3.0055835247039795,-3.034390687942505,-0.37313514947891235,-3.0558929443359375,-3.0012292861938477
-3.006340503692627,-3.0057756900787354,-3.0141780376434326,-0.3654487133026123,-3.034872531890869,-2.9995973110198975
-3.011369466781616,-2.997784376144409,-2.9934351444244385,-0.356018602848053,-3.005830764770508,-2.9861373901367188
-3.02681040763855,-2.9857535362243652,-2.9996109008789062,-0.3594326674938202,-3.0044755935668945,-2.992095470428467
-3.0140557289123535,-2.965259313583374,-3.0188381671905518,-0.3736953139305115,-3.0143470764160156,-2.986090898513794
-3.0190353393554688,-2.941288948059082,-3.0245416164398193,-0.3985608220100403,-3.0121519565582275,-2.9890291690826416
-3.033769130706787,-2.926776647567749,-3.0098018646240234,-0.41280969977378845,-3.0090324878692627,-2.9733588695526123
-3.0413482189178467,-2.9156365394592285,-3.022573709487915,-0.40031033754348755,-3.006880521774292,-2.964787006378174
-3.0468363761901855,-2.9223201274871826,-3.0305440425872803,-0.3708406388759613,-3.003909111022949,-2.9891915321350098
-3.0319859981536865,-2.946962833404541,-3.0189003944396973,-0.35499972105026245,-3.0012245178222656,-3.0135207176208496
-3.0255908966064453,-2.976041555404663,-3.0233821868896484,-0.34685859084129333,-3.0158796310424805,-3.0052616596221924
-3.010449171066284,-2.991945266723633,-3.0199360847473145,-0.3372635543346405,-3.0212881565093994,-2.9896044731140137
-2.9938812255859375,-2.9963557720184326,-3.0113883018493652,-0.31385600566864014,-3.0126430988311768,-2.968777894973755
-2.9873242378234863,-2.9999632835388184,-2.9962918758392334,-0.29739266633987427,-2.9963879585266113,-2.954867124557495
-2.989426374435425,-2.9913339614868164,-2.9890658855438232,-0.2835140526294708,-2.9838154315948486,-2.974360466003418
-2.979308843612671,-2.9809975624084473,-3.0011398792266846,-0.2682780921459198,-2.9770455360412598,-2.992478370666504
-2.9751546382904053,-2.9934985637664795,-3.0257644653320312,-0.2671128809452057,-2.976294755935669,-3.0039002895355225
-2.9771194458007812,-2.9940285682678223,-3.0418899059295654,-0.27937355637550354,-2.9772415161132812,-3.007601499557495
-2.9710569381713867,-2.986348867416382,-3.0200884342193604,-0.294038861989975,-2.983353853225708,-3.0063436031341553
-2.96547532081604,-2.9892570972442627,-3.014411211013794,-0.316324919462204,-3.0041399002075195,-3.020118474960327
-2.968050718307495,-3.001213550567627,-3.01536226272583,-0.3508363366127014,-3.0234012603759766,-3.019434690475464
-2.972827911376953,-3.010420799255371,-3.012341022491455,-0.37554892897605896,-3.018673896789551,-3.019407272338867
-2.993372917175293,-3.0211682319641113,-3.0162103176116943,-0.40602588653564453,-3.0038862228393555,-3.004556894302368
-3.012526273727417,-3.036155939102173,-3.003293037414551,-0.4146363139152527,-3.008685350418091,-2.9971272945404053
-3.0106754302978516,-3.0568647384643555,-2.9969561100006104,-0.3992086946964264,-3.025036573410034,-2.986924171447754
-3.0098071098327637,-3.079219102859497,-2.976344585418701,-0.3782978057861328,-3.0275776386260986,-2.966484308242798
-3.0007777214050293,-3.0820789337158203,-2.963848829269409,-0.36172446608543396,-3.026648759841919,-2.957472085952759
-2.9827091693878174,-3.050619602203369,-2.9700028896331787,-0.35897254943847656,-3.031477928161621,-2.9428048133850098
-2.987145185470581,-3.020519495010376,-3.001969575881958,-0.35990023612976074,-3.044163465499878,-2.9509963989257812
-2.9884443283081055,-2.987612247467041,-3.0155062675476074,-0.3582300841808319,-3.0615851879119873,-2.9697258472442627
-2.987006425857544,-2.966996192932129,-3.0183732509613037,-0.3467571437358856,-3.0703980922698975,-2.9737513065338135
-2.9851810932159424,-2.968421697616577,-3.011162042617798,-0.32151344418525696,-3.0617477893829346,-2.982801675796509
-2.9953315258026123,-2.9711990356445312,-3.0114493370056152,-0.2883228063583374,-3.0484981536865234,-3.0063133239746094
-3.009380340576172,-2.9810831546783447,-2.978647470474243,-0.2589589059352875,-3.031071662902832,-3.04313063621521
-3.0148558616638184,-2.991314649581909,-2.9691529273986816,-0.25609177350997925,-3.002039670944214,-3.044415235519409
-3.0131618976593018,-3.000758647918701,-2.9996800422668457,-0.27133095264434814,-2.987421989440918,-3.039501428604126
-3.011730670928955,-3.007791519165039,-3.0073370933532715,-0.29658761620521545,-2.985956907272339,-3.042609453201294
-3.006255865097046,-3.0127174854278564,-2.9721596240997314,-0.3103158175945282,-2.9853241443634033,-3.048739433288574
-2.9915506839752197,-3.020583152770996,-2.9363479614257812,-0.2975694537162781,-3.0068838596343994,-3.0354363918304443
-2.98317813873291,-3.011840581893921,-2.9436259269714355,-0.28240135312080383,-3.030221700668335,-3.025219202041626
-2.9765686988830566,-3.000216484069824,-2.9418857097625732,-0.29565659165382385,-3.0482447147369385,-2.9912631511688232
-2.973581314086914,-2.9893436431884766,-2.9551937580108643,-0.31249335408210754,-3.0351829528808594,-2.9375815391540527
-2.9823405742645264,-2.9858946800231934,-2.9727232456207275,-0.3439934253692627,-3.0125296115875244,-2.92999529838562
-2.996164560317993,-2.9967710971832275,-2.9852006435394287,-0.3759552538394928,-2.9922733306884766,-2.931279182434082
-3.018601417541504,-3.0114541053771973,-2.9980783462524414,-0.39419710636138916,-2.9906787872314453,-2.9313361644744873
-3.024526357650757,-3.0117557048797607,-3.0119404792785645,-0.3956907093524933,-2.9870307445526123,-2.94515323638916
-3.024845600128174,-3.0163464546203613,-3.0252459049224854,-0.38980063796043396,-2.9884891510009766,-2.9712982177734375
-3.012401580810547,-3.017613172531128,-3.0306906700134277,-0.377010703086853,-2.9933300018310547,-2.9905080795288086
-3.0015978813171387,-3.0173447132110596,-3.032804250717163,-0.3657691478729248,-2.99436092376709,-3.0074167251586914
-3.00835919380188,-3.018117904663086,-3.027470111846924,-0.3573184311389923,-2.9927055835723877,-3.0262556076049805
-3.010624885559082,-3.0231313705444336,-3.049957275390625,-0.3418988883495331,-3.013505458831787,-3.01609206199646
-3.003093957901001,-3.0179507732391357,-3.0373177528381348,-0.339691162109375,-3.030393600463867,-3.0211846828460693
-2.9994289875030518,-3.019111394882202,-3.0114388465881348,-0.35054269433021545,-3.0347812175750732,-3.031916618347168
-3.001918315887451,-3.021270990371704,-3.0113587379455566,-0.3557629883289337,-3.0421299934387207,-3.0273241996765137
-2.9959449768066406,-3.018186330795288,-3.0247228145599365,-0.3597671389579773,-3.0444729328155518,-3.0120508670806885
-3.003767967224121,-2.998056650161743,-3.0318100452423096,-0.35246720910072327,-3.043771743774414,-3.0174381732940674
-3.0073652267456055,-3.0018980503082275,-3.0362861156463623,-0.3342084586620331,-3.0407485961914062,-3.0214178562164307
-2.9941999912261963,-3.0103206634521484,-3.026743173599243,-0.3291926085948944,-3.037004232406616,-3.040548324584961
-2.983738899230957,-3.0069165229797363,-3.0209245681762695,-0.33001118898391724,-3.032663345336914,-3.039604425430298
-2.996814250946045,-3.0070812702178955,-3.013004779815674,-0.3324258327484131,-3.028643846511841,-3.0082032680511475
-3.0210397243499756,-3.0010714530944824,-2.9975998401641846,-0.3377045691013336,-3.021819591522217,-2.976212978363037
-3.0317575931549072,-3.0004892349243164,-2.9902822971343994,-0.3507637083530426,-3.032106399536133,-2.9542791843414307
-3.030938148498535,-3.01509952545166,-2.9758591651916504,-0.3552122414112091,-3.051025152206421,-2.9612014293670654
-3.036402463912964,-3.030531406402588,-2.944073438644409,-0.35730409622192383,-3.0727407932281494,-2.984793186187744
-3.0388505458831787,-3.022456645965576,-2.950678586959839,-0.36195144057273865,-3.081347703933716,-2.99499249458313
-3.035794496536255,-3.0036392211914062,-2.948417901992798,-0.3736320734024048,-3.070302963256836,-2.9935977458953857
-3.0198352336883545,-3.003842353820801,-2.9396746158599854,-0.36890196800231934,-3.057166337966919,-2.996880531311035
-2.9986722469329834,-2.997054100036621,-2.953810214996338,-0.3432275354862213,-3.0289700031280518,-3.0052101612091064
-2.975076913833618,-2.9835031032562256,-2.979111433029175,-0.30862268805503845,-3.003875255584717,-3.033982038497925
-2.945343017578125,-2.9781956672668457,-3.00516676902771,-0.2680124044418335,-2.995706796646118,-3.05240797996521
-2.9335763454437256,-2.979945182800293,-3.014761447906494,-0.23793724179267883,-2.9900760650634766,-3.020829200744629
-2.937629461288452,-2.9748663902282715,-3.0359621047973633,-0.23948544263839722,-2.9927892684936523,-2.9952635765075684
-2.9595680236816406,-2.9709339141845703,-3.042984962463379,-0.2573055624961853,-2.9938955307006836,-3.0264878273010254
-2.9892289638519287,-2.967963218688965,-3.0065271854400635,-0.28874120116233826,-2.995364189147949,-3.049851655960083
-3.013469696044922,-2.982398748397827,-2.9942848682403564,-0.3354213535785675,-3.0008504390716553,-3.050288438796997
-3.0317578315734863,-3.0028135776519775,-2.9872384071350098,-0.372615247964859,-2.999847173690796,-3.0492098331451416
-3.03541898727417,-3.0027365684509277,-2.9665725231170654,-0.3743896186351776,-3.00063419342041,-3.0409324169158936
-3.019401788711548,-2.9995713233947754,-2.9736175537109375,-0.381384015083313,-3.004784345626831,-3.0411362648010254
-3.0029456615448,-3.006986618041992,-3.00018048286438,-0.3871581554412842,-3.02134108543396,-3.0228612422943115
-2.990077018737793,-3.014260768890381,-3.021219253540039,-0.4061526358127594,-3.038999319076538,-3.007052421569824
-2.9915287494659424,-3.0079281330108643,-3.023172616958618,-0.4081442356109619,-3.04769229888916,-3.0056471824645996
-2.9921019077301025,-3.0025508403778076,-3.01583194732666,-0.4022018015384674,-3.046978712081909,-2.99245023727417
-2.992823839187622,-3.00222110748291,-3.0094902515411377,-0.40334832668304443,-3.0245823860168457,-2.9931604862213135
-3.0036799907684326,-3.008878707885742,-3.0073509216308594,-0.4003129005432129,-3.008362054824829,-2.9952595233917236
-3.004889965057373,-3.0203967094421387,-3.0336577892303467,-0.3956606388092041,-2.994628429412842,-2.990514039993286
-2.9954702854156494,-3.0257205963134766,-3.049652099609375,-0.3917384445667267,-2.9967057704925537,-2.9957821369171143
-2.980454921722412,-3.0279693603515625,-3.042954444885254,-0.36032119393348694,-3.0109028816223145,-3.010221242904663
-2.975513219833374,-3.0333309173583984,-3.051712989807129,-0.32218700647354126,-3.0161590576171875,-3.0014278888702393
-2.980555772781372,-3.048107862472534,-3.0582454204559326,-0.296842098236084,-3.0098190307617188,-2.9875380992889404
-2.967188835144043,-3.0507843494415283,-3.0484795570373535,-0.27946972846984863,-3.012871265411377,-2.963834047317505
-2.9556760787963867,-3.0419363975524902,-3.032028913497925,-0.2799742817878723,-3.0181379318237305,-2.947766065597534
-2.951630115509033,-3.0266273021698,-2.998046875,-0.28733617067337036,-3.0274152755737305,-2.941699743270874
-2.9625449180603027,-3.0005970001220703,-2.9925830364227295,-0.28786733746528625,-3.0294556617736816,-2.9491143226623535
-2.9942023754119873,-2.986290454864502,-3.0027658939361572,-0.2796016335487366,-3.0416276454925537,-2.9673540592193604
-3.0171420574188232,-2.9870588779449463,-2.9992682933807373,-0.27229824662208557,-3.0247104167938232,-2.9875361919403076
-3.0332131385803223,-2.988150119781494,-2.9664204120635986,-0.2789347171783447,-3.0037190914154053,-2.9836976528167725
-3.034205913543701,-2.988126277923584,-2.9637298583984375,-0.28964167833328247,-2.989539623260498,-2.9936227798461914
-3.0295777320861816,-2.9935836791992188,-2.9405007362365723,-0.3024727702140808,-2.978158473968506,-2.981170892715454
-3.0389859676361084,-3.0079362392425537,-2.9440784454345703,-0.3127918541431427,-2.9744648933410645,-2.9675543308258057
-3.043534755706787,-3.0195274353027344,-2.963960886001587,-0.32105928659439087,-2.9819412231445312,-2.989572286605835
-3.0393929481506348,-3.0235707759857178,-2.978956937789917,-0.3290690779685974,-2.979379177093506,-3.0286054611206055
-3.0351288318634033,-3.0137479305267334,-2.9716596603393555,-0.33056390285491943,-2.972097158432007,-3.041794776916504
-3.030639410018921,-3.017371892929077,-2.9304277896881104,-0.3313567638397217,-2.9621405601501465,-3.0399672985076904
-3.0369417667388916,-3.015557050704956,-2.9123010635375977,-0.3447364568710327,-2.960322141647339,-3.0452637672424316
-3.0329365730285645,-3.011183261871338,-2.9148614406585693,-0.3587985634803772,-2.974482297897339,-3.042595386505127
-3.0153472423553467,-3.0005271434783936,-2.936023235321045,-0.38171517848968506,-2.988424777984619,-3.0510404109954834
-3.005056381225586,-3.0083024501800537,-2.957127571105957,-0.40104159712791443,-2.993584632873535,-3.0276055335998535
-3.0069360733032227,-3.0183966159820557,-2.9692296981811523,-0.4164466857910156,-2.994518280029297,-3.0113651752471924
-3.0105831623077393,-3.013468027114868,-2.978471040725708,-0.4140830934047699,-2.9945967197418213,-2.987645387649536
-3.0098423957824707,-3.000124931335449,-2.9960784912109375,-0.42484238743782043,-2.9903171062469482,-2.9880313873291016
-2.992889404296875,-2.9933552742004395,-3.02681827545166,-0.44516682624816895,-2.986386299133301,-3.004739999771118
-2.9831361770629883,-2.9938995838165283,-3.017411947250366,-0.43585872650146484,-2.9971134662628174,-3.001551866531372
-2.9951400756835938,-2.993802070617676,-3.002699375152588,-0.398892343044281,-3.014582872390747,-2.990638017654419
-2.9974911212921143,-3.0020651817321777,-3.0125744342803955,-0.3653581142425537,-3.031986713409424,-2.9717519283294678
-2.981377601623535,-2.9955081939697266,-3.0362682342529297,-0.34621649980545044,-3.045395612716675,-2.9794182777404785
-2.9718785285949707,-2.9932332038879395,-3.0507729053497314,-0.34477663040161133,-3.0558512210845947,-2.979156732559204
-2.9578850269317627,-2.9929957389831543,-3.032071352005005,-0.35231679677963257,-3.0659167766571045,-2.970931053161621
-2.9433913230895996,-2.9812850952148438,-3.02211594581604,-0.36809802055358887,-3.075531482696533,-2.965446949005127
-2.928729772567749,-2.964109420776367,-3.0080652236938477,-0.37378907203674316,-3.07763934135437,-2.9645957946777344
-2.909270763397217,-2.9509878158569336,-3.001443386077881,-0.36300602555274963,-3.081770896911621,-2.950780153274536
-2.9195148944854736,-2.9511728286743164,-2.970473527908325,-0.34773963689804077,-3.078932285308838,-2.941791296005249
-2.947993040084839,-2.9500863552093506,-2.937542200088501,-0.338575541973114,-3.0687999725341797,-2.9708688259124756
-2.961146593093872,-2.973130464553833,-2.901557683944702,-0.3269519805908203,-3.0609116554260254,-3.0000622272491455
-2.974580764770508,-2.9896371364593506,-2.9171788692474365,-0.2933639585971832,-3.0596935749053955,-3.024916648864746
-2.9790091514587402,-3.0060219764709473,-2.9590039253234863,-0.2619417607784271,-3.04966139793396,-3.040940761566162
-2.9916563034057617,-3.0261590480804443,-3.00984787940979,-0.25404876470565796,-3.0445942878723145,-3.0521302223205566
-3.0016300678253174,-3.018836259841919,-3.0192885398864746,-0.273727148771286,-3.0257809162139893,-3.0697028636932373
-3.009626865386963,-3.014784097671509,-3.012113571166992,-0.28957512974739075,-3.008091449737549,-3.0641045570373535
-3.0098154544830322,-3.00970458984375,-2.9874491691589355,-0.3068723976612091,-2.9936742782592773,-3.049236536026001
-3.025209903717041,-2.9957118034362793,-2.982110023498535,-0.31042104959487915,-2.9863924980163574,-3.050529956817627
-3.029580593109131,-2.9916720390319824,-2.9908292293548584,-0.30643975734710693,-2.9859724044799805,-3.051682472229004
-3.0284504890441895,-2.996783971786499,-3.0160768032073975,-0.3086760342121124,-2.9905123710632324,-3.0603928565979004
-3.030442953109741,-3.007359743118286,-3.069634437561035,-0.32053759694099426,-2.9992358684539795,-3.0511605739593506
-3.034080743789673,-3.0108096599578857,-3.108977794647217,-0.3275304436683655,-3.004465103149414,-3.0376949310302734
-3.0258948802948,-3.004208564758301,-3.1120691299438477,-0.34670358896255493,-2.9927291870117188,-3.0196847915649414
-3.009021282196045,-2.9964354038238525,-3.1103127002716064,-0.35052216053009033,-2.9769108295440674,-3.0064094066619873
-3.0057532787323,-2.9927890300750732,-3.0777835845947266,-0.3627967834472656,-2.9696714878082275,-2.9872262477874756
-3.015348434448242,-3.001807451248169,-3.0496442317962646,-0.3744715452194214,-2.973177194595337,-2.965801954269409
-3.0082509517669678,-3.0234763622283936,-3.0209507942199707,-0.3720986545085907,-2.986529588699341,-2.9547312259674072
-3.0042366981506348,-3.0410802364349365,-2.984600305557251,-0.38185033202171326,-2.9962306022644043,-2.9773614406585693
-3.0047664642333984,-3.0431079864501953,-2.966198444366455,-0.38593700528144836,-2.9984521865844727,-3.007420778274536
-3.0063693523406982,-3.032050609588623,-2.961484670639038,-0.3843114674091339,-3.00116229057312,-3.0492193698883057
-3.0004422664642334,-3.021388530731201,-2.9361019134521484,-0.373753160238266,-2.999711513519287,-3.0737454891204834
-2.999897003173828,-3.0313515663146973,-2.940676689147949,-0.359608918428421,-2.9995851516723633,-3.0714614391326904
-3.0015335083007812,-3.031527042388916,-2.9704701900482178,-0.3609998822212219,-3.0190229415893555,-3.0602548122406006
-2.996472120285034,-3.032694101333618,-2.9870526790618896,-0.3657170832157135,-3.033719062805176,-3.0453572273254395
-2.9809978008270264,-3.0289154052734375,-2.9807357788085938,-0.3666198253631592,-3.037454605102539,-3.0363948345184326
-2.9803056716918945,-3.013389825820923,-2.972278594970703,-0.36866259574890137,-3.033198118209839,-3.0332748889923096
-2.964271306991577,-2.9975037574768066,-2.9788784980773926,-0.3751516342163086,-3.03241229057312,-3.0015580654144287
-2.9692325592041016,-2.9962000846862793,-2.9799327850341797,-0.3850398659706116,-3.037936210632324,-2.984301805496216
-2.9796059131622314,-3.008211135864258,-2.9791958332061768,-0.38408786058425903,-3.028212785720825,-2.9822044372558594
-2.981778383255005,-3.0049822330474854,-2.9942376613616943,-0.3774414360523224,-3.0220234394073486,-2.992236852645874
-2.9778285026550293,-3.003159761428833,-3.0133912563323975,-0.38619357347488403,-3.0091660022735596,-2.98882794380188
-2.9723598957061768,-2.9956576824188232,-3.000453233718872,-0.39778342843055725,-2.9879813194274902,-2.987701892852783
-2.9795782566070557,-2.9833717346191406,-2.9674577713012695,-0.39322397112846375,-2.961834669113159,-2.987480401992798
-2.9832053184509277,-2.9685325622558594,-2.935671329498291,-0.3820336163043976,-2.942429304122925,-2.99116849899292
-2.970974922180176,-2.958975076675415,-2.9294843673706055,-0.38306164741516113,-2.934004068374634,-2.9894564151763916
-2.984349489212036,-2.958169460296631,-2.9422013759613037,-0.3902132511138916,-2.938154935836792,-3.0015926361083984
-2.9961061477661133,-2.9674789905548096,-2.9514613151550293,-0.40174129605293274,-2.9512956142425537,-3.004173994064331
-3.0048739910125732,-2.978695869445801,-2.9805266857147217,-0.4117192029953003,-2.970675468444824,-2.9923641681671143
-3.0109260082244873,-2.980379819869995,-3.0336718559265137,-0.40129467844963074,-2.971619129180908,-2.9857351779937744
-3.0034806728363037,-2.9919228553771973,-3.0424294471740723,-0.3793375790119171,-2.9692065715789795,-2.9870975017547607
-3.0029945373535156,-2.990140676498413,-3.0351951122283936,-0.3517077565193176,-2.9737112522125244,-3.0039968490600586
-3.004943370819092,-2.9751298427581787,-3.0335702896118164,-0.34074854850769043,-2.989933490753174,-2.982588291168213
-3.007232904434204,-2.9792733192443848,-3.030857801437378,-0.3522283732891083,-3.0020859241485596,-2.982952117919922
-3.0159711837768555,-2.996126413345337,-3.0197770595550537,-0.34901103377342224,-3.0127885341644287,-3.0023319721221924
-3.0199196338653564,-3.0079185962677,-3.021779775619507,-0.33061933517456055,-3.0178158283233643,-3.0075535774230957
-3.029698610305786,-3.0223913192749023,-3.0206103324890137,-0.3135468065738678,-3.027289867401123,-3.0139002799987793
-3.037417411804199,-3.0252082347869873,-3.0089352130889893,-0.2943103015422821,-3.0307729244232178,-3.0266268253326416
-3.0474698543548584,-3.014528751373291,-3.012824773788452,-0.2954152524471283,-3.031498908996582,-3.0441267490386963
-3.0509915351867676,-2.982393741607666,-3.029290199279785,-0.3158550560474396,-3.037165880203247,-3.038306951522827
-3.0521843433380127,-2.971813440322876,-3.0192830562591553,-0.33705171942710876,-3.0445120334625244,-3.0313823223114014
-3.0383217334747314,-2.961592435836792,-3.0260889530181885,-0.34960925579071045,-3.055044174194336,-3.0246691703796387
-3.0096354484558105,-2.95432710647583,-3.041154623031616,-0.3562666177749634,-3.062967300415039,-3.0254642963409424
-2.986199140548706,-2.9595484733581543,-3.0402872562408447,-0.3561031222343445,-3.067868947982788,-3.021308183670044
-2.969465970993042,-2.9593446254730225,-3.014650344848633,-0.34344637393951416,-3.0582480430603027,-2.9959418773651123
-2.964156150817871,-2.9639832973480225,-2.993293285369873,-0.32958582043647766,-3.0503361225128174,-2.9644553661346436
-2.969184637069702,-2.963409900665283,-2.9999194145202637,-0.3141855299472809,-3.0448672771453857,-2.9522666931152344
-2.992446184158325,-2.957843542098999,-2.988929510116577,-0.3243780732154846,-3.0403337478637695,-2.946418046951294
-3.022941827774048,-2.977342128753662,-2.979170560836792,-0.33256909251213074,-3.0353686809539795,-2.9301390647888184
-3.0249521732330322,-2.9924936294555664,-2.9564549922943115,-0.33637216687202454,-3.0278546810150146,-2.9165477752685547
-3.0017495155334473,-3.002091884613037,-2.968421697616577,-0.33473676443099976,-3.0097949504852295,-2.916259527206421
-2.9961624145507812,-2.9988675117492676,-2.9736568927764893,-0.32689565420150757,-2.9903218746185303,-2.958299160003662
-2.984579086303711,-2.9977216720581055,-3.000380754470825,-0.32527124881744385,-2.9678502082824707,-2.97766375541687
-2.9799773693084717,-3.005458116531372,-3.0332841873168945,-0.3073343336582184,-2.9512486457824707,-3.001893997192383
-2.975982427597046,-3.0126993656158447,-3.0446255207061768,-0.2963102161884308,-2.948029041290283,-3.036004066467285
-2.9927117824554443,-3.015458345413208,-3.0345659255981445,-0.3106653094291687,-2.9587242603302,-3.0573456287384033
-2.9959402084350586,-3.0119667053222656,-2.9845449924468994,-0.3220117688179016,-2.9908969402313232,-3.0545806884765625
-2.9886348247528076,-3.0157713890075684,-2.940263032913208,-0.3360625207424164,-3.031700849533081,-3.0390331745147705
-2.9948666095733643,-3.0236775875091553,-2.9249229431152344,-0.3448043763637543,-3.0556764602661133,-3.0268585681915283
-2.990978717803955,-3.0364511013031006,-2.9296672344207764,-0.3523455262184143,-3.0606954097747803,-3.026106595993042
-2.9880716800689697,-3.0380709171295166,-2.91849684715271,-0.3594699203968048,-3.037947177886963,-3.0298843383789062
-2.9909214973449707,-3.0310301780700684,-2.9282033443450928,-0.3592543303966522,-3.0090060234069824,-3.025878667831421
-3.005160093307495,-3.018239974975586,-2.9410207271575928,-0.3506200313568115,-2.98721981048584,-3.0210628509521484
-3.0047059059143066,-3.0003662109375,-2.973375082015991,-0.3479955792427063,-2.981463670730591,-3.021097421646118
-3.0129287242889404,-2.989278793334961,-2.994739532470703,-0.334345281124115,-2.982408285140991,-3.040522336959839
-3.015632390975952,-2.9784319400787354,-2.9785866737365723,-0.3387375771999359,-2.996422529220581,-3.0378246307373047
-3.001861333847046,-2.98337984085083,-2.984480381011963,-0.35532045364379883,-3.025240182876587,-3.0209298133850098
-2.9905812740325928,-2.989957571029663,-3.0062482357025146,-0.36898744106292725,-3.0631728172302246,-3.027846097946167
-2.989013671875,-3.0113165378570557,-3.030308723449707,-0.3696751296520233,-3.078995704650879,-3.0461747646331787
-2.973360061645508,-3.033435821533203,-3.0450611114501953,-0.3664158880710602,-3.076244831085205,-3.048552989959717
-2.96764874458313,-3.0399413108825684,-3.0273830890655518,-0.3702705204486847,-3.0652761459350586,-3.0524988174438477
-2.968202829360962,-3.029968500137329,-3.0124669075012207,-0.3740382194519043,-3.0385637283325195,-3.0359854698181152
