0.7349130511283875,0.004116827622056007,-0.9829854965209961,0.029419217258691788,-0.029921775683760643,-0.4760262072086334
0.7345561385154724,0.010802412405610085,-0.9783693552017212,0.027859464287757874,-0.024612916633486748,-0.478447824716568
0.740205705165863,0.006051374599337578,-0.9762752056121826,0.02677059918642044,-0.022164197638630867,-0.47859451174736023
0.7392465472221375,0.009831307455897331,-0.9721025824546814,0.02484433352947235,-0.026405490934848785,-0.48041418194770813
0.748079240322113,0.0067634377628564835,-0.9739157557487488,0.01972416415810585,-0.038275543600320816,-0.48346129059791565
0.75245201587677,0.0018409322947263718,-0.9774762988090515,0.015893183648586273,-0.04655936360359192,-0.48435476422309875
0.7565523982048035,0.0005851928144693375,-0.9766468405723572,0.015158496797084808,-0.04243607819080353,-0.48459434509277344
0.758789598941803,0.006268607452511787,-0.9750378727912903,0.017750676721334457,-0.031057188287377357,-0.4837804138660431
0.7573016881942749,0.011506779119372368,-0.9728022217750549,0.013929836452007294,-0.02114812284708023,-0.48151445388793945
0.7557879090309143,0.01481146365404129,-0.9698155522346497,0.0022841431200504303,-0.011426478624343872,-0.4802125096321106
0.7557826042175293,0.024003254249691963,-0.9703722596168518,0.006187465041875839,-0.0001908615231513977,-0.47990307211875916
0.7528331279754639,0.028082383796572685,-0.9745804667472839,0.010220605880022049,-0.000409519299864769,-0.4828988313674927
0.7534350752830505,0.030049791559576988,-0.9791668057441711,0.016193021088838577,-0.00480186752974987,-0.4851694107055664
0.7537152767181396,0.026456590741872787,-0.9853048920631409,0.02147567644715309,-0.010458368808031082,-0.48583292961120605
0.7496613264083862,0.014562718570232391,-0.9979783892631531,0.023033209145069122,-0.012832357548177242,-0.4872426688671112
0.7483640313148499,0.006068982183933258,-1.005608320236206,0.024821393191814423,-0.01443194318562746,-0.4878205358982086
0.7522909641265869,-0.0005604643374681473,-1.0033187866210938,0.027309972792863846,-0.015384087339043617,-0.4876452088356018
0.7539596557617188,-0.004834314808249474,-0.996851921081543,0.024930231273174286,-0.017907220870256424,-0.4891485869884491
0.7465404272079468,0.002723168581724167,-0.9912444949150085,0.02093428745865822,-0.025740087032318115,-0.4995667636394501
0.7354007363319397,0.014484567567706108,-0.9894455075263977,0.04623158648610115,-0.026698386296629906,-0.6237894296646118
0.7338674068450928,0.021302079781889915,-0.9881006479263306,0.08473195135593414,-0.026795541867613792,-0.8230950236320496
0.734230637550354,0.020663747563958168,-0.9878301024436951,0.07931547611951828,-0.032438136637210846,-0.9255772829055786
0.729712188243866,0.022579925134778023,-0.9886870384216309,0.06342463940382004,-0.03412734344601631,-0.9735108613967896
0.7216594219207764,0.029044954106211662,-0.9894817471504211,0.05303468182682991,-0.029113423079252243,-0.9896166324615479
0.7197418212890625,0.033794105052948,-0.9875554442405701,0.05004178732633591,-0.02136397175490856,-0.9894533753395081
0.7213854789733887,0.03224065527319908,-0.9908359050750732,0.050818637013435364,-0.01389135792851448,-0.9872369766235352
0.7268956899642944,0.03404591977596283,-0.9950845837593079,0.048794131726026535,-0.010974226519465446,-0.9891992807388306
0.7286509871482849,0.037489570677280426,-0.9967538118362427,0.046420618891716,-0.0016040392220020294,-0.989009439945221
0.7332881093025208,0.0220522191375494,-0.9986951947212219,0.05039679631590843,0.012114051729440689,-0.9886434078216553
0.7422081828117371,0.005069440230727196,-1.0013515949249268,0.05922238901257515,0.018510889261960983,-0.9890293478965759
0.7454366683959961,-0.004475323483347893,-1.0001765489578247,0.062218017876148224,0.013736024498939514,-0.9883729219436646
0.7471343874931335,-0.008510144427418709,-1.0073373317718506,0.06160178780555725,0.0042419880628585815,-0.9895688891410828
0.7390514612197876,0.004864435642957687,-1.012793779373169,0.05899183452129364,-0.0027737896889448166,-0.989207923412323
0.73224276304245,0.01501091942191124,-1.0100574493408203,0.05957586690783501,-0.00630168616771698,-0.9884278178215027
0.7338618040084839,0.018329232931137085,-1.0053744316101074,0.05715085193514824,-0.010784323327243328,-0.9904940128326416
0.732134222984314,0.019577141851186752,-1.0018819570541382,0.04874299466609955,-0.021253198385238647,-0.9919332265853882
0.7332591414451599,0.019956190139055252,-0.9959182143211365,0.041338104754686356,-0.027202997356653214,-0.9918566942214966
0.7366666197776794,0.02501661144196987,-0.9899411797523499,0.037645015865564346,-0.03158414736390114,-0.9921938180923462
0.7392158508300781,0.021219443529844284,-0.9878541827201843,0.03973371163010597,-0.03623587265610695,-0.9936152696609497
0.7396390438079834,0.018749602138996124,-0.9904011487960815,0.044506628066301346,-0.039547983556985855,-0.9948266744613647
0.7381632328033447,0.013350222259759903,-0.997216522693634,0.0499078668653965,-0.0334828719496727,-0.9954557418823242
0.7367319464683533,0.011608986184000969,-1.0023002624511719,0.05077894777059555,-0.029807662591338158,-0.9929779171943665
0.7351218461990356,0.017555655911564827,-0.9995771646499634,0.050905294716358185,-0.033030152320861816,-0.9909582138061523
0.7398874759674072,0.024915678426623344,-0.9971195459365845,0.048529546707868576,-0.034506313502788544,-0.99200040102005
0.7450351715087891,0.025168253108859062,-0.9948022365570068,0.043830178678035736,-0.032320473343133926,-0.9932215213775635
0.7441987991333008,0.023573609068989754,-0.9957832098007202,0.041637785732746124,-0.026935359463095665,-0.9937025904655457
0.7403883934020996,0.020457575097680092,-0.9964317083358765,0.040615081787109375,-0.016014788299798965,-0.9954949021339417
0.7380185723304749,0.016352254897356033,-0.9978100657463074,0.04110369458794594,-0.008262740448117256,-0.9940025806427002
0.7306344509124756,0.014500711113214493,-0.9982684254646301,0.03910087049007416,-0.0024317223578691483,-0.9927499890327454
0.7241219282150269,0.017047494649887085,-0.9970739483833313,0.03596936911344528,-0.0030734073370695114,-0.9921573996543884
0.7269039154052734,0.01930839568376541,-0.9970492720603943,0.03161945566534996,0.00018597394227981567,-0.9928407073020935
0.7285506725311279,0.02173870988190174,-0.9998966455459595,0.027145694941282272,0.0033217184245586395,-0.994857132434845
0.7319017648696899,0.019863184541463852,-1.002888798713684,0.024764932692050934,-0.0013408735394477844,-0.9959223866462708
0.7332212328910828,0.012791110202670097,-1.0069208145141602,0.022299371659755707,-0.009083529934287071,-0.9942824840545654
0.7364891767501831,0.009795764461159706,-1.0064187049865723,0.02110110968351364,-0.012684553861618042,-0.9953094124794006
0.7378928661346436,0.011952796950936317,-1.00487220287323,0.022348344326019287,-0.004816846922039986,-0.9965978860855103
0.7389881610870361,0.02045963890850544,-1.003151297569275,0.02889135479927063,0.0057623665779829025,-0.9952806830406189
0.7396014332771301,0.016208115965127945,-1.0037254095077515,0.0326748788356781,0.014227813109755516,-0.9944508671760559
0.7370550036430359,0.0031818952411413193,-1.0061918497085571,0.03433135896921158,0.01619420200586319,-0.9924463033676147
0.7342954874038696,-0.004229068756103516,-1.0109052658081055,0.03516562283039093,0.012581730261445045,-0.9929037690162659
0.7333111763000488,-0.004880920052528381,-1.0103530883789062,0.03351426124572754,0.0073045287281274796,-0.9925517439842224
0.7288285493850708,0.0022485703229904175,-1.0026006698608398,0.02994774654507637,0.003372466191649437,-0.9948694109916687
0.7207248210906982,0.011007875204086304,-0.9939514398574829,0.026866286993026733,0.004024462774395943,-0.9980882406234741
0.7163349390029907,0.012024030089378357,-0.9980165958404541,0.02609216421842575,0.004624359309673309,-0.9975529909133911
0.7241495847702026,0.013354690745472908,-1.0056512355804443,0.02708827331662178,0.006865834817290306,-0.9966030716896057
0.7311304807662964,0.01644449308514595,-1.0066837072372437,0.027551792562007904,0.009967174381017685,-0.996229350566864
0.7407394051551819,0.011674895882606506,-1.0058764219284058,0.030342649668455124,0.00826326385140419,-0.9970401525497437
0.7413144111633301,0.0058302562683820724,-1.0050095319747925,0.03427091985940933,-0.0013666898012161255,-0.997382402420044
0.8239193558692932,0.012261489406228065,-1.0073977708816528,0.036368973553180695,-0.009942594915628433,-0.995568573474884
0.964053213596344,0.01439712755382061,-1.0029407739639282,0.036580994725227356,-0.010362534783780575,-0.9954095482826233
1.0593374967575073,0.012037964537739754,-1.0011143684387207,0.033366866409778595,-0.007736018858850002,-0.9954110980033875
1.13060462474823,0.009152347221970558,-1.0021508932113647,0.02731318771839142,-0.012558549642562866,-0.995830774307251
1.191123127937317,0.011014530435204506,-1.0002504587173462,0.024891462177038193,-0.014042594470083714,-0.9932091236114502
1.22258722782135,0.015593396499752998,-0.9952677488327026,0.02188439667224884,-0.0114738829433918,-0.9916410446166992
1.2419886589050293,0.017484409734606743,-0.9919447898864746,0.020329676568508148,-0.013459652662277222,-0.9953445792198181
1.255704402923584,0.018434036523103714,-0.9909638166427612,0.020298834890127182,-0.019745346158742905,-1.0006481409072876
1.2633291482925415,0.01799570955336094,-0.9890550374984741,0.022096633911132812,-0.021756047382950783,-1.0027928352355957
1.2654961347579956,0.012058081105351448,-0.9890555739402771,0.026553813368082047,-0.019106753170490265,-1.0036791563034058
1.2595936059951782,0.002702796831727028,-0.9885455965995789,0.0207846537232399,-0.02182374894618988,-1.001564621925354
1.2549378871917725,-0.001605236902832985,-0.9869232177734375,0.015691068023443222,-0.022486623376607895,-1.0012990236282349
1.248815894126892,0.0005058590322732925,-0.9867234230041504,0.012562327086925507,-0.022724788635969162,-1.0004658699035645
1.253988265991211,0.002490069717168808,-0.9893761873245239,0.014662157744169235,-0.01661790907382965,-0.9971438646316528
1.2564116716384888,0.004401342943310738,-0.989287257194519,0.018975503742694855,-0.014084013178944588,-0.9954203367233276
1.2548437118530273,0.01328587718307972,-0.9894999861717224,0.027083873748779297,-0.011936487630009651,-0.9908431172370911
1.255924105644226,0.01342308521270752,-0.98633873462677,0.02866898849606514,-0.008330658078193665,-0.9913420081138611
1.2567228078842163,0.012259222567081451,-0.9863441586494446,0.022275060415267944,-0.010134285315871239,-0.9905824065208435
1.2557860612869263,0.015839772298932076,-0.9873870015144348,0.015665162354707718,-0.00631369836628437,-0.9908610582351685
1.2512845993041992,0.01975001022219658,-0.9886475205421448,0.0141480453312397,-0.003699513152241707,-0.9907774329185486
1.2503904104232788,0.01644325815141201,-0.9896326065063477,0.01357678696513176,-0.00885099172592163,-0.9946590065956116
1.2538100481033325,0.01055903546512127,-0.9928917288780212,0.01320362463593483,-0.009634044952690601,-0.9970285296440125
1.2831835746765137,0.007553119212388992,-0.9981352090835571,0.01825876161456108,-0.0008981004357337952,-0.996951162815094
1.4534887075424194,0.004141220822930336,-0.9987767934799194,0.02448846399784088,0.010740276426076889,-0.9972238540649414
1.56083083152771,-0.0028885137289762497,-1.0005029439926147,0.027918599545955658,0.012195950374007225,-0.9977633357048035
1.633056402206421,-0.011703113093972206,-1.005216360092163,0.027766432613134384,0.011458102613687515,-0.9954259395599365
1.6852471828460693,-0.007839195430278778,-1.0120978355407715,0.025885872542858124,0.012869063764810562,-0.9949306845664978
1.7258403301239014,0.0017184708267450333,-1.0160518884658813,0.02372932806611061,0.011226236820220947,-0.9957422018051147
1.750425100326538,0.010454263538122177,-1.0155328512191772,0.0215175561606884,0.010037640109658241,-0.9966458082199097
1.7614163160324097,0.017099754884839058,-1.0137429237365723,0.020256392657756805,0.010132724419236183,-0.9962100386619568
1.7662650346755981,0.028985844925045967,-1.0182836055755615,0.020858582109212875,0.009810397401452065,-0.9970232248306274
1.772550106048584,0.025979556143283844,-1.0261989831924438,0.021840564906597137,0.006474709138274193,-0.9980846047401428
1.7769780158996582,0.01435079425573349,-1.0279587507247925,0.02084920182824135,0.003982642665505409,-0.9984655976295471
1.7747018337249756,0.009887458756566048,-1.0272619724273682,0.018537480384111404,0.0024119019508361816,-0.9968538284301758
1.7671500444412231,0.012276561930775642,-1.0291450023651123,0.016109894961118698,0.003182288259267807,-0.9972617030143738
1.752266526222229,0.02975062094628811,-1.025802731513977,0.014340713620185852,0.00349334254860878,-0.9984662532806396
1.745706558227539,0.032036684453487396,-1.0135966539382935,0.014488119632005692,0.0042322855442762375,-0.9973751306533813
1.745387077331543,0.022561099380254745,-1.0078387260437012,0.017685730010271072,0.0032577291131019592,-0.9974019527435303
1.742055892944336,0.0204146895557642,-1.008286714553833,0.021601025015115738,0.0007310099899768829,-0.9976828098297119
1.7386410236358643,0.01619885489344597,-1.004508137702942,0.023900780826807022,0.0005768798291683197,-0.9982499480247498
1.7377040386199951,0.014351755380630493,-0.9966920018196106,0.022962864488363266,0.008865419775247574,-0.9983434081077576
1.7448450326919556,0.010827973484992981,-0.9929565191268921,0.019583888351917267,0.01445692591369152,-0.998089611530304
1.7427326440811157,0.0012503080070018768,-0.9944254159927368,0.016132771968841553,0.011877095326781273,-0.999825119972229
1.7296580076217651,-0.009316159412264824,-1.000419020652771,0.013932377099990845,0.002915080636739731,-1.0007517337799072
1.7179577350616455,-0.011544516310095787,-1.0033894777297974,0.012015532702207565,-0.007766200229525566,-0.9997681379318237
1.7176377773284912,-0.010831917636096478,-1.0077192783355713,0.01329602301120758,-0.013773837126791477,-0.9991297721862793
1.716916799545288,-0.007107164710760117,-1.0069061517715454,0.015853971242904663,-0.0177321694791317,-0.9991111159324646
1.7172635793685913,-0.0005018077790737152,-1.0057646036148071,0.013445120304822922,-0.00534160528331995,-1.0028685331344604
1.7242224216461182,0.0023270826786756516,-1.0058799982070923,0.014810100197792053,0.007921991869807243,-1.004934549331665
1.7294845581054688,0.012600952759385109,-1.0026676654815674,0.011949006468057632,0.0023450953885912895,-1.000157117843628
1.735750436782837,0.013259803876280785,-1.0051722526550293,0.009286034852266312,-0.004599379375576973,-0.9990350604057312
1.737882137298584,0.008893396705389023,-1.0090495347976685,0.008905980736017227,-0.008221099153161049,-0.9972891807556152
1.73700749874115,-0.0009325258433818817,-1.015213966369629,0.00803343951702118,-0.006365190260112286,-0.997370183467865
1.752162218093872,-0.001670990139245987,-1.0177268981933594,0.01287873461842537,-0.008863499388098717,-0.9997115731239319
1.89229416847229,0.00014717504382133484,-1.0171568393707275,0.012911133468151093,-0.01752670854330063,-1.0023380517959595
1.9907892942428589,-0.004985470324754715,-1.0131111145019531,0.007340595126152039,-0.030599791556596756,-1.0045039653778076
2.072631597518921,-0.012731597758829594,-1.0020651817321777,0.005976874381303787,-0.033203721046447754,-1.0045239925384521
2.136854648590088,-0.02001507394015789,-0.9951930642127991,0.010821733623743057,-0.029506193473935127,-1.0051542520523071
2.1870715618133545,-0.02152179926633835,-0.9865788221359253,0.015208177268505096,-0.02550717256963253,-1.0068271160125732
2.2131876945495605,-0.020822148770093918,-0.9812731146812439,0.012481603771448135,-0.016375795006752014,-1.008381724357605
2.2241547107696533,-0.017089422792196274,-0.9765552282333374,0.009235113859176636,-0.008666123263537884,-1.0093717575073242
2.233532428741455,-0.011283700354397297,-0.9813822507858276,0.009896442294120789,-0.006395863369107246,-1.008204698562622
2.248239040374756,-0.0008671078830957413,-0.986704409122467,0.011714138090610504,-0.005788428708910942,-1.0060811042785645
2.2631194591522217,0.002968061715364456,-0.9862817525863647,0.010466553270816803,-0.008599841967225075,-1.0038834810256958
2.2704336643218994,0.0047928281128406525,-0.9843862652778625,0.00656171515583992,-0.004369501024484634,-1.0034149885177612
2.266993999481201,0.011022554710507393,-0.9873419404029846,0.0007455013692378998,-0.0037026461213827133,-1.0056250095367432
2.261622905731201,0.022540414705872536,-0.9944316148757935,-0.002848707139492035,-0.008340712636709213,-1.0072015523910522
2.259446620941162,0.0134310033172369,-1.001278042793274,-0.005536675453186035,-0.011766462586820126,-1.0051326751708984
2.2659990787506104,0.003173297271132469,-1.0046242475509644,-0.005650155246257782,-0.01684204302728176,-1.0013262033462524
2.2687830924987793,0.0008946247398853302,-1.0032695531845093,-0.002104196697473526,-0.013317039236426353,-1.0020686388015747
2.2708661556243896,0.0015320628881454468,-1.0036848783493042,0.0024434998631477356,-0.0026367250829935074,-1.0018563270568848
2.2690372467041016,0.007544245570898056,-1.0044111013412476,0.005238525569438934,0.0013720430433750153,-1.0023962259292603
2.2652313709259033,0.006465345621109009,-1.0086873769760132,0.004748165607452393,0.005064688622951508,-1.0007151365280151
2.265141487121582,-0.002475135028362274,-1.0126008987426758,0.004389874637126923,0.01256854273378849,-0.9966443777084351
2.260021448135376,-0.004766957834362984,-1.0139858722686768,0.005397208034992218,0.019869228824973106,-0.9949861764907837
2.2542529106140137,-0.007643561810255051,-1.013985276222229,0.01017676293849945,0.012883985415101051,-0.9918597936630249
2.2499570846557617,-0.004449779167771339,-1.0143890380859375,0.009833358228206635,0.010327758267521858,-0.9967762231826782
2.247220039367676,0.0010078977793455124,-1.013877034187317,0.00138787180185318,0.01243348978459835,-0.999718189239502
2.242342948913574,0.0023479163646698,-1.0105901956558228,-0.005393188446760178,0.023687439039349556,-1.0025526285171509
2.248974323272705,-0.001812351867556572,-1.0064890384674072,-0.005916722118854523,0.026440640911459923,-1.0041521787643433
2.2534263134002686,-0.007150782272219658,-0.9977031350135803,-0.002084124833345413,0.020155640318989754,-1.0011305809020996
2.2503981590270996,-0.006184125319123268,-0.9934365749359131,0.0017730817198753357,0.010528966784477234,-0.9999605417251587
2.247462272644043,-0.005560282617807388,-0.9962921142578125,0.00581694021821022,0.01085207425057888,-1.00077223777771
2.236494541168213,-0.0101936561986804,-0.9989949464797974,0.00500902533531189,0.021909916773438454,-1.0030649900436401
2.227975606918335,-0.014433239586651325,-0.9992997050285339,0.000790812075138092,0.030687497928738594,-0.9997325539588928
2.2205188274383545,-0.006084291264414787,-0.9983511567115784,-0.002002827823162079,0.03274962306022644,-0.9955692291259766
2.2216451168060303,-0.002948388457298279,-0.9970383644104004,-0.00017136335372924805,0.02789231576025486,-0.9960635304450989
2.2236416339874268,-0.009067220613360405,-0.9952268004417419,-0.006086818873882294,0.016072148457169533,-1.0008255243301392
2.2281205654144287,-0.00487731397151947,-0.9939612150192261,-0.013144176453351974,0.0027338843792676926,-1.003102421760559
2.3831944465637207,0.004992978647351265,-0.9860163331031799,-0.006160862743854523,-0.004828469827771187,-1.001691222190857
2.513378143310547,0.008010396733880043,-0.984015941619873,0.0003654360771179199,0.004990294575691223,-1.0016359090805054
2.591661214828491,0.013050395995378494,-0.9863108396530151,-0.003756653517484665,0.010292356833815575,-1.0001739263534546
2.646083354949951,0.01640324480831623,-0.9871273040771484,-0.002694126218557358,0.0034376252442598343,-1.004143476486206
2.692039966583252,0.019566114991903305,-0.9854517579078674,0.0034282878041267395,0.006110895425081253,-1.002657175064087
2.7233378887176514,0.020560437813401222,-0.9850256443023682,0.007218312472105026,0.010960038751363754,-0.9998363256454468
2.74965238571167,0.021471507847309113,-0.9838881492614746,0.010695930570363998,0.010902462527155876,-0.9953653216362
2.7596421241760254,0.017081836238503456,-0.9824865460395813,0.013185638934373856,0.01240018755197525,-0.9920513033866882
2.7661056518554688,0.015236934646964073,-0.9811405539512634,0.013542894273996353,0.015109702944755554,-0.9907076358795166
2.765082359313965,0.017056837677955627,-0.9797397255897522,0.007996343076229095,0.018080659210681915,-0.9927147030830383
2.762336492538452,0.013809574767947197,-0.978492021560669,0.0017059743404388428,0.02163064479827881,-0.9923166632652283
2.7604756355285645,0.009129021316766739,-0.9763448238372803,-0.0037804841995239258,0.02857055887579918,-0.9916694164276123
2.756523847579956,0.010236941277980804,-0.9758769273757935,-0.008974233642220497,0.03476199507713318,-0.9907425045967102
2.752277374267578,0.012299088761210442,-0.9770474433898926,-0.013482574373483658,0.033035844564437866,-0.9897443056106567
2.7498536109924316,0.018359718844294548,-0.9798086881637573,-0.01529615931212902,0.03309877589344978,-0.9907075762748718
2.737240791320801,0.020642047747969627,-0.9803733825683594,-0.011195814236998558,0.036245156079530716,-0.9920689463615417
2.7267491817474365,0.016238683834671974,-0.9806374311447144,-0.006933275610208511,0.03855707496404648,-0.9947119951248169
2.724151849746704,0.011573007330298424,-0.9795514345169067,-0.005849290639162064,0.036230020225048065,-0.9983179569244385
2.7258942127227783,0.010497283190488815,-0.978107750415802,-0.008066929876804352,0.03448590263724327,-0.9997196197509766
2.729762315750122,0.011437756940722466,-0.9775204658508301,-0.008882887661457062,0.040270037949085236,-1.0012317895889282
2.7322404384613037,0.014056399464607239,-0.9806658029556274,-0.010379645973443985,0.04594562575221062,-0.9993277788162231
2.7346160411834717,0.012676116079092026,-0.9833947420120239,-0.014005174860358238,0.052574530243873596,-0.996455729007721
2.7379205226898193,0.005282290279865265,-0.985931396484375,-0.014934699982404709,0.04858456552028656,-0.996776819229126
2.7393174171447754,0.0020592249929904938,-0.9869450330734253,-0.011519700288772583,0.04247457534074783,-0.9972543716430664
2.7439630031585693,0.00329684279859066,-0.9833707213401794,-0.0035740621387958527,0.038294240832328796,-1.000013828277588
2.7548019886016846,0.008187485858798027,-0.9835595488548279,0.0048981644213199615,0.024895276874303818,-1.0008368492126465
2.758521795272827,0.013295518234372139,-0.9876341819763184,0.008644938468933105,0.009714601561427116,-0.9988710284233093
2.755794048309326,0.018546713516116142,-0.991834819316864,0.010205790400505066,0.0032316818833351135,-1.0003411769866943
2.7522172927856445,0.01776573248207569,-0.9990035891532898,0.00965888798236847,0.00034680403769016266,-1.0008779764175415
2.7503151893615723,0.01618826575577259,-1.0032696723937988,0.011426232755184174,0.0025532618165016174,-1.0016416311264038
2.748621702194214,0.011374538764357567,-1.0034456253051758,0.015178177505731583,0.0075150541961193085,-1.002617359161377
2.749056816101074,0.007943905889987946,-1.001729130744934,0.017237193882465363,0.01141510158777237,-1.0002996921539307
2.7462193965911865,0.010050388053059578,-1.0001249313354492,0.01416848972439766,0.013437334448099136,-0.9990569949150085
2.743053436279297,0.013726508244872093,-0.99909508228302,0.008584726601839066,0.01784631237387657,-0.9983434081077576
2.7370357513427734,0.016261504963040352,-0.9985339045524597,0.0035128630697727203,0.023503534495830536,-0.9968289732933044
2.7339560985565186,0.018639784306287766,-0.9981879591941833,-0.002343684434890747,0.03058597818017006,-0.9985911846160889
2.7273669242858887,0.020064793527126312,-0.9989252090454102,-0.005139745771884918,0.025876682251691818,-0.9994035959243774
2.724726676940918,0.013550855219364166,-0.9998399615287781,-0.004989210516214371,0.021869651973247528,-0.998914361000061
2.748781442642212,0.010381987318396568,-1.0036060810089111,-0.004610463976860046,0.024774812161922455,-0.9969799518585205
2.9069809913635254,0.008462665602564812,-1.0071322917938232,-0.00514400377869606,0.026188872754573822,-0.9965598583221436
3.022325277328491,0.006827656179666519,-1.0127553939819336,-0.008191786706447601,0.027356475591659546,-0.9981050491333008
3.109065532684326,0.009156150743365288,-1.0155913829803467,-0.012208130210638046,0.026784807443618774,-1.0004600286483765
3.1743123531341553,0.01537390612065792,-1.0139360427856445,-0.012170178815722466,0.028119437396526337,-1.0015947818756104
3.215247869491577,0.018658725544810295,-1.0087145566940308,-0.0069074928760528564,0.02512505277991295,-1.0022252798080444
3.238431453704834,0.022315653041005135,-1.0019950866699219,0.0008823759853839874,0.020314373075962067,-1.002940058708191
3.248844623565674,0.019459549337625504,-0.9997902512550354,0.006216645240783691,0.023506317287683487,-1.0019465684890747
3.2473912239074707,0.02389725297689438,-1.0067670345306396,0.005497269332408905,0.029541950672864914,-1.001604676246643
3.251453399658203,0.018038062378764153,-1.0105016231536865,0.002220839262008667,0.029261577874422073,-1.000150442123413
3.247100353240967,0.019307032227516174,-1.0117676258087158,-0.0023447945713996887,0.02613716945052147,-0.9983001351356506
3.2429518699645996,0.015564560890197754,-1.0078151226043701,-0.008263695985078812,0.02406052127480507,-0.9987171292304993
3.246229887008667,0.00822271965444088,-1.0042754411697388,-0.01349257305264473,0.0262521430850029,-0.9998818039894104
3.238457679748535,0.016698027029633522,-1.0074491500854492,-0.014452382922172546,0.02935916930437088,-0.9975790977478027
3.230417490005493,0.018941404297947884,-1.015457272529602,-0.010939635336399078,0.02791082113981247,-0.995997965335846
3.2263729572296143,0.019079865887761116,-1.022736668586731,-0.003270234912633896,0.02191002666950226,-0.9972291588783264
3.233242988586426,0.03019619733095169,-1.0228086709976196,0.0005208998918533325,0.01276867464184761,-0.9985722303390503
3.2382125854492188,0.03477403521537781,-1.014655351638794,0.001702927052974701,0.0023586079478263855,-0.9994308352470398
3.239166498184204,0.02865539863705635,-1.0024006366729736,-0.0009932741522789001,-0.0029719211161136627,-1.0005229711532593
3.2390549182891846,0.023724447935819626,-0.9986886978149414,-0.0033385343849658966,-0.005001366138458252,-1.0013970136642456
3.242410659790039,0.021201690658926964,-1.0020278692245483,-0.0037142224609851837,-0.0015456341207027435,-1.001630187034607
3.241535186767578,0.01947036013007164,-1.004055380821228,-0.0026119761168956757,0.006240572780370712,-1.0013946294784546
3.242405891418457,0.017813298851251602,-1.007097601890564,-0.002187594771385193,0.005369748920202255,-1.0003108978271484
3.24320387840271,0.014986757189035416,-1.0068345069885254,-0.003215380012989044,0.004139769822359085,-1.000139832496643
3.2376809120178223,0.02041126787662506,-1.0071700811386108,-0.0057135894894599915,0.003967560827732086,-1.0004723072052002
3.2409210205078125,0.020089970901608467,-1.007200002670288,-0.009125780314207077,0.007586076855659485,-0.9987578392028809
3.242702007293701,0.02108326368033886,-1.0088130235671997,-0.010158263146877289,0.01181483268737793,-0.9958531856536865
3.2419509887695312,0.029356516897678375,-1.008948564529419,-0.009584195911884308,0.016288552433252335,-0.9964319467544556
3.241471529006958,0.034224532544612885,-1.0049622058868408,-0.008554376661777496,0.016329973936080933,-0.9975532293319702
3.2440192699432373,0.023904675617814064,-1.0061134099960327,-0.005256269127130508,0.010875381529331207,-0.9982532858848572
3.2465407848358154,0.022319933399558067,-1.0044466257095337,-0.0017258264124393463,0.0090915746986866,-0.9976175427436829
3.2478272914886475,0.02223430573940277,-1.0058841705322266,-0.0018413178622722626,0.013739291578531265,-0.9966120719909668
3.2404394149780273,0.01839197427034378,-1.0110121965408325,-0.0033690333366394043,0.019346419721841812,-0.996738851070404
3.31091570854187,0.01871410571038723,-1.0231379270553589,-0.0028983615338802338,0.02209876850247383,-0.9991751909255981
3.463470220565796,0.021105144172906876,-1.0249526500701904,0.0050364211201667786,0.020913634449243546,-1.0061020851135254
3.573739767074585,0.002928793430328369,-1.0283052921295166,0.20402340590953827,0.011193141341209412,-0.9945278167724609
3.6315348148345947,-0.012547574937343597,-1.0233311653137207,0.5693861246109009,-0.00021892786026000977,-0.9915637969970703
3.668735980987549,-0.014849415980279446,-1.0093355178833008,0.8566640615463257,-0.029819553717970848,-0.9927837252616882
3.6998674869537354,-0.009729317389428616,-0.9953669905662537,1.025395154953003,-0.0436495766043663,-0.9928428530693054
3.719413995742798,0.0019757114350795746,-0.990441083908081,1.135846495628357,-0.04984043166041374,-0.9917203783988953
3.7236573696136475,0.010452093556523323,-0.990654706954956,1.2080519199371338,-0.058251529932022095,-0.9912641048431396
3.724821090698242,0.014593048021197319,-0.991004228591919,1.251370906829834,-0.06568511575460434,-0.9940800666809082
3.7301034927368164,0.013828832656145096,-0.9872505068778992,1.2704830169677734,-0.07581997662782669,-0.9974310398101807
3.739071846008301,0.010318424552679062,-0.9785939455032349,1.2737513780593872,-0.07998798787593842,-0.9987652897834778
3.7509167194366455,0.014917302876710892,-0.9747597575187683,1.2686653137207031,-0.06485685706138611,-0.9975777864456177
3.7509148120880127,0.011436404660344124,-0.9739651083946228,1.2624326944351196,-0.04296758770942688,-0.9936849474906921
3.760676622390747,0.010203098878264427,-0.9718995690345764,1.2543554306030273,-0.02465667575597763,-0.9909153580665588
3.762561082839966,0.01561320573091507,-0.9702779054641724,1.2429475784301758,-0.012914658524096012,-0.9881161451339722
3.75797438621521,0.025996647775173187,-0.9735487699508667,1.2325122356414795,-0.005680210888385773,-0.9854350686073303
3.7583608627319336,0.0226023830473423,-0.980745792388916,1.2267178297042847,-0.0017713606357574463,-0.9886507391929626
3.7535781860351562,0.011219145730137825,-0.9876176118850708,1.2266616821289062,-0.0060257092118263245,-0.990092933177948
3.7480697631835938,0.005315987393260002,-0.992000937461853,1.225451111793518,-0.010287407785654068,-0.9929423332214355
3.74568772315979,-0.004991641268134117,-0.9925791025161743,1.227988839149475,-0.013446050696074963,-0.9952250719070435
3.745250940322876,-0.010404062457382679,-0.9932606816291809,1.2355183362960815,-0.016314204782247543,-0.9943438172340393
3.7420332431793213,-0.00956770684570074,-0.995097279548645,1.2430649995803833,-0.011731330305337906,-0.9956340193748474
3.742889642715454,-0.01770791783928871,-0.9994737505912781,1.2503330707550049,-0.00777030922472477,-0.9959826469421387
3.7315664291381836,-0.015944739803671837,-1.0078895092010498,1.2561718225479126,-0.011880050413310528,-0.9959274530410767
3.737438201904297,-0.015822486951947212,-1.0159850120544434,1.258546233177185,-0.02162065915763378,-0.9969603419303894
3.7419252395629883,-0.017783965915441513,-1.0106267929077148,1.2558542490005493,-0.028802337124943733,-0.9970968961715698
3.7419235706329346,-0.025872576981782913,-1.0035020112991333,1.2515511512756348,-0.026812728494405746,-0.9979642629623413
3.7423524856567383,-0.013656014576554298,-0.996655285358429,1.2488493919372559,-0.02352425456047058,-0.9971681237220764
3.7360012531280518,0.0009766500443220139,-0.9967576265335083,1.2489815950393677,-0.01829530857503414,-0.9960547089576721
3.721102237701416,0.01642867550253868,-0.9964289665222168,1.252406358718872,-0.01830686815083027,-0.9964355826377869
3.7216081619262695,0.01912410743534565,-0.9960208535194397,1.256403923034668,-0.02538505755364895,-0.9955336451530457
3.722456216812134,0.019495658576488495,-1.0000035762786865,1.2576239109039307,-0.027147801592946053,-0.9961555600166321
3.7257936000823975,0.008176637813448906,-1.0003612041473389,1.251094937324524,-0.03232438862323761,-0.9971975088119507
3.7305080890655518,0.0022521037608385086,-1.0055464506149292,1.243901252746582,-0.03343311697244644,-0.9943165183067322
3.7332653999328613,0.0013813991099596024,-1.0121034383773804,1.2453138828277588,-0.029592201113700867,-0.9911137819290161
3.7381591796875,-0.0061475969851017,-1.015022873878479,1.2514764070510864,-0.026651112362742424,-0.9915817975997925
3.737229347229004,-0.005910739302635193,-1.0202034711837769,1.253983497619629,-0.02547507733106613,-0.9916737675666809
3.7349767684936523,0.0030116289854049683,-1.0219188928604126,1.2560229301452637,-0.02573362924158573,-0.9895790219306946
3.727329969406128,0.011058181524276733,-1.0204176902770996,1.256730556488037,-0.029500335454940796,-0.989308774471283
3.732985496520996,0.015179743990302086,-1.0213676691055298,1.2569304704666138,-0.032147787511348724,-0.986029863357544
3.7287840843200684,0.013294044882059097,-1.0246652364730835,1.255217432975769,-0.03035922721028328,-0.9830212593078613
3.727649211883545,0.014103135094046593,-1.0210316181182861,1.2518799304962158,-0.02461940422654152,-0.9848607778549194
3.7264397144317627,0.01056680828332901,-1.0138150453567505,1.247871994972229,-0.017268823459744453,-0.9890030026435852
3.7319817543029785,0.011005047708749771,-1.0007723569869995,1.2400895357131958,-0.012073886580765247,-0.9890772700309753
3.735689163208008,0.01138538122177124,-0.9919453859329224,1.2357401847839355,-0.012547401711344719,-0.9893040060997009
3.731734037399292,0.002296304330229759,-0.994596004486084,1.236735224723816,-0.012935208156704903,-0.9919154644012451
3.723432779312134,0.0033754929900169373,-0.9934758543968201,1.2395333051681519,-0.013296161778271198,-0.99211186170578
3.718726396560669,0.009621327742934227,-0.9880995154380798,1.2458890676498413,-0.006990399211645126,-0.991442859172821
3.7187442779541016,0.011686868965625763,-0.9821121692657471,1.2474359273910522,-0.0041654109954833984,-0.9896947145462036
3.776017427444458,0.007421314716339111,-0.9835463762283325,1.2480605840682983,-0.0017804168164730072,-0.9908815026283264
3.84702730178833,-0.0031371470540761948,-0.9904173612594604,1.2488442659378052,0.006455577909946442,-0.9933604598045349
3.8843493461608887,0.005180584266781807,-0.9933311343193054,1.2548173666000366,0.007903460413217545,-0.9935980439186096
3.9129154682159424,0.014265025034546852,-0.9895244836807251,1.288766622543335,0.011326683685183525,-1.006123423576355
3.9440536499023438,0.011119566857814789,-0.9880999326705933,1.422180414199829,0.0121634341776371,-1.0114930868148804
3.972578287124634,0.0022409632802009583,-0.9923445582389832,1.5579869747161865,0.003792988136410713,-1.0145909786224365
3.9882924556732178,-0.006007861346006393,-0.9990445971488953,1.6417139768600464,0.0030141454190015793,-1.0145810842514038
3.995884656906128,-0.00900329276919365,-1.0086102485656738,1.6909834146499634,0.021708425134420395,-1.0149801969528198
3.990590810775757,-0.01131752785295248,-1.0154317617416382,1.7205761671066284,0.03253529965877533,-1.015256404876709
3.987894296646118,-0.001049211248755455,-1.0145343542099,1.7400308847427368,0.03816457837820053,-1.0124144554138184
3.9877443313598633,-0.0036424435675144196,-1.0080279111862183,1.750131368637085,0.04282468184828758,-1.0083554983139038
3.993121385574341,-0.014585914090275764,-1.001118779182434,1.7528092861175537,0.035409606993198395,-1.008972406387329
3.9946329593658447,-0.025421736761927605,-0.9961705207824707,1.7556504011154175,0.017299151048064232,-1.0120396614074707
3.9939675331115723,-0.019278746098279953,-0.9962936043739319,1.7580645084381104,0.01172131858766079,-1.0103615522384644
3.9838008880615234,0.002834506332874298,-0.996350884437561,1.7528256177902222,0.015325382351875305,-1.0085986852645874
3.9833834171295166,0.010009665042161942,-0.996407151222229,1.7509713172912598,0.015415558591485023,-1.0093567371368408
3.9868900775909424,0.0027978383004665375,-0.9928769469261169,1.7560425996780396,0.006690610200166702,-1.0111558437347412
3.993112564086914,-0.0016660820692777634,-0.9941615462303162,1.762602686882019,-0.007239410653710365,-1.0152631998062134
3.9955992698669434,-0.012454455718398094,-1.004111886024475,1.7627439498901367,-0.01363606471568346,-1.0186326503753662
3.9856255054473877,-0.009285753592848778,-1.010738730430603,1.760511875152588,-0.014902199618518353,-1.0208206176757812
3.9779045581817627,0.0007637627422809601,-1.0102949142456055,1.756272792816162,-0.00932493805885315,-1.0207877159118652
3.9759135246276855,0.009233446791768074,-1.0071104764938354,1.753859519958496,0.000674080103635788,-1.0204036235809326
3.9788782596588135,0.004705635830760002,-1.007454514503479,1.7499239444732666,0.008967867121100426,-1.0189142227172852
3.988240957260132,0.007899485528469086,-1.0091444253921509,1.74648916721344,0.017732884734869003,-1.0172228813171387
3.9953556060791016,0.0005777254700660706,-1.0097664594650269,1.7444775104522705,0.01698378287255764,-1.015817403793335
3.9992775917053223,-0.014052788726985455,-1.0112305879592896,1.7408868074417114,0.015604620799422264,-1.0160703659057617
3.9919509887695312,-0.027029598131775856,-1.0167337656021118,1.7370731830596924,0.0200496818870306,-1.01432204246521
3.981374740600586,-0.021756945177912712,-1.01841402053833,1.7391399145126343,0.02095397189259529,-1.0112727880477905
3.96951961517334,-0.015339965000748634,-1.0133544206619263,1.7413924932479858,0.020718052983283997,-1.0114120244979858
3.9631569385528564,-0.006937207654118538,-1.002841591835022,1.7382012605667114,0.01721404865384102,-1.0125361680984497
3.9619507789611816,0.009243147447705269,-0.996288001537323,1.7389349937438965,0.018326207995414734,-1.0112664699554443
3.960638999938965,0.018791384994983673,-0.9932882189750671,1.7397125959396362,0.02387610450387001,-1.0118688344955444
3.9658660888671875,0.008050598204135895,-0.9906675219535828,1.7401542663574219,0.028615020215511322,-1.01361083984375
3.979001045227051,-0.0028637368232011795,-0.9939500093460083,1.7406944036483765,0.03543896973133087,-1.0137516260147095
3.982595205307007,-0.0066840555518865585,-1.0012998580932617,1.744821310043335,0.03963800147175789,-1.0120357275009155
3.9818389415740967,-0.008525858633220196,-1.0106924772262573,1.7461823225021362,0.04219616577029228,-1.0100241899490356
3.977339029312134,-0.01107852254062891,-1.0160999298095703,1.7472834587097168,0.0461801141500473,-1.010964274406433
3.980003595352173,-0.011333666741847992,-1.0150110721588135,1.7457095384597778,0.042908765375614166,-1.0128765106201172
3.9944515228271484,-0.014786500483751297,-1.007260799407959,1.7474006414413452,0.03541997820138931,-1.0132994651794434
3.9896700382232666,-0.008906316943466663,-1.0039268732070923,1.7451226711273193,0.028920210897922516,-1.012968897819519
3.980046510696411,-0.001963222399353981,-1.0051440000534058,1.7405909299850464,0.01751365140080452,-1.010615348815918
3.983220100402832,-0.008679280988872051,-1.0043588876724243,1.738774061203003,0.014209959656000137,-1.009640097618103
3.9922103881835938,-0.03169452026486397,-1.000780463218689,1.738034725189209,0.014179911464452744,-1.010264277458191
3.9953980445861816,-0.030149199068546295,-1.000512957572937,1.7360388040542603,0.02307727560400963,-1.0138559341430664
3.9913852214813232,-0.023245451971888542,-1.0028175115585327,1.7366316318511963,0.037965647876262665,-1.0134488344192505
3.997612714767456,-0.020894424989819527,-0.9988802075386047,1.7460132837295532,0.04486874118447304,-1.0112345218658447
3.9921395778656006,-0.0173441581428051,-0.9913746118545532,1.7545828819274902,0.03351759538054466,-1.0114423036575317
3.9741291999816895,-0.005719829350709915,-0.9837604761123657,1.750836730003357,0.02390562742948532,-1.0121022462844849
3.969137668609619,-0.00010150857269763947,-0.9832260012626648,1.7437630891799927,0.019594751298427582,-1.0134358406066895
3.9639623165130615,-0.0034317001700401306,-0.9855747818946838,1.7350049018859863,0.025634244084358215,-1.0115859508514404
3.9735610485076904,-0.00939858052879572,-0.994037389755249,1.731998085975647,0.02676103450357914,-1.0159019231796265
3.9918570518493652,-0.040385983884334564,-1.0003670454025269,1.7350702285766602,0.016946934163570404,-1.019534945487976
3.9961912631988525,-0.18569546937942505,-0.9957383871078491,1.733095645904541,0.018097873777151108,-1.0197069644927979
3.9849979877471924,-0.30391794443130493,-0.9923397898674011,1.732298493385315,0.028167041018605232,-1.0217177867889404
3.983285903930664,-0.3998233377933502,-0.9953790307044983,1.731703758239746,0.03213077411055565,-1.0216326713562012
3.99042010307312,-0.4558790326118469,-0.9989640712738037,1.7290351390838623,0.02558361366391182,-1.0223262310028076
3.996567726135254,-0.4799816608428955,-0.9966779947280884,1.725321888923645,0.02277538925409317,-1.020689606666565
4.008513450622559,-0.50298011302948,-0.991870641708374,1.727720856666565,0.02934311330318451,-1.0164400339126587
4.008077144622803,-0.5142542123794556,-0.9860599040985107,1.732160210609436,0.019373204559087753,-1.0144542455673218
3.997779369354248,-0.5028601288795471,-0.9785805344581604,1.8388210535049438,0.008327275514602661,-0.996222972869873
3.9955456256866455,-0.5009852647781372,-0.9743252396583557,1.9910304546356201,0.00627421960234642,-0.9921128153800964
3.99420428276062,-0.49603357911109924,-0.9683265089988708,2.1039927005767822,0.0032400228083133698,-0.9916014671325684
3.989123582839966,-0.49119430780410767,-0.9699735045433044,2.1728594303131104,0.01270991936326027,-0.9902431964874268
3.9921209812164307,-0.4850786626338959,-0.9814825057983398,2.213779926300049,0.019456151872873306,-0.9863685369491577
3.9924137592315674,-0.4818016290664673,-0.9949374794960022,2.23612380027771,0.027555260807275772,-0.9809980988502502
3.997452974319458,-0.48174846172332764,-1.0017621517181396,2.2482824325561523,0.040327608585357666,-0.979533314704895
4.006677150726318,-0.48418882489204407,-1.0063624382019043,2.255415916442871,0.030402228236198425,-0.9801604747772217
4.0226311683654785,-0.49199020862579346,-1.0084134340286255,2.256696939468384,0.013834938406944275,-0.983310878276825
4.0178704261779785,-0.4924027919769287,-1.0067137479782104,2.25244402885437,0.00847119465470314,-0.9866601228713989
4.005729675292969,-0.4819693863391876,-0.9999098181724548,2.246979236602783,0.02415488287806511,-0.9899390339851379
4.006769180297852,-0.47765135765075684,-0.9916955828666687,2.2485711574554443,0.03911362588405609,-0.9904924631118774
4.006728172302246,-0.4842560291290283,-0.9828499555587769,2.2525413036346436,0.047350190579891205,-0.9899117946624756
4.008378028869629,-0.4893125295639038,-0.9781148433685303,2.2472171783447266,0.0505627803504467,-0.9911680817604065
4.002776622772217,-0.4874311685562134,-0.9779481291770935,2.245861291885376,0.043575186282396317,-0.9885216951370239
3.9939310550689697,-0.4790990352630615,-0.9824684262275696,2.250481128692627,0.03969350829720497,-0.9886080026626587
3.996896266937256,-0.47450193762779236,-0.9824255704879761,2.252854347229004,0.039426885545253754,-0.9902200698852539
4.003811836242676,-0.4734440743923187,-0.9843974113464355,2.2511472702026367,0.028628086671233177,-0.990702211856842
4.007202625274658,-0.47353091835975647,-0.9866628646850586,2.2482681274414062,0.020473450422286987,-0.9873533844947815
4.007627964019775,-0.4837109446525574,-0.9945252537727356,2.246335744857788,0.02279570885002613,-0.9900223016738892
4.009280204772949,-0.494546502828598,-1.0009711980819702,2.2484664916992188,0.029697444289922714,-0.9887856245040894
4.013615608215332,-0.5020975470542908,-1.0023912191390991,2.2463083267211914,0.020959584042429924,-0.987234354019165
4.013444900512695,-0.5019999146461487,-1.0005334615707397,2.244253635406494,0.0015002470463514328,-0.9866652488708496
4.008243083953857,-0.49321362376213074,-0.990199625492096,2.2423477172851562,-0.017419876530766487,-0.9895823001861572
4.003589630126953,-0.4907010793685913,-0.9815152287483215,2.2459378242492676,-0.024838091805577278,-0.9881019592285156
3.9954075813293457,-0.4888181686401367,-0.9733287692070007,2.249164342880249,-0.01324581727385521,-0.9834297895431519
3.981924533843994,-0.4949938952922821,-0.9734724164009094,2.2570960521698,0.011601805686950684,-0.9784173369407654
3.972243547439575,-0.4999178946018219,-0.9723785519599915,2.2520554065704346,0.024699576199054718,-0.9798544049263
3.968519449234009,-0.49898457527160645,-0.9709625244140625,2.2404680252075195,0.019846348091959953,-0.9802340269088745
3.971003532409668,-0.49408483505249023,-0.9736659526824951,2.2402374744415283,0.014403363689780235,-0.9800177216529846
3.974459648132324,-0.4886912703514099,-0.9752680659294128,2.2420053482055664,0.022218981757760048,-0.986443042755127
3.979586124420166,-0.49381762742996216,-0.9822578430175781,2.250361919403076,0.024380546063184738,-0.9921268820762634
3.977841377258301,-0.4998634159564972,-0.9916884899139404,2.25449538230896,0.015584975481033325,-0.9970022439956665
3.9753336906433105,-0.5017086863517761,-0.9979881644248962,2.2565948963165283,0.002006031572818756,-0.9968271255493164
3.9760098457336426,-0.5093105435371399,-1.002713918685913,2.257634162902832,-0.0011439863592386246,-0.9937731027603149
3.9770126342773438,-0.5080838203430176,-1.0049655437469482,2.254971742630005,0.014387940987944603,-0.9915974140167236
3.9793243408203125,-0.5067712664604187,-1.0065698623657227,2.250157117843628,0.01628231257200241,-0.9880278706550598
3.981382369995117,-0.49596258997917175,-1.007485032081604,2.241858720779419,0.0062697818502783775,-0.9896549582481384
3.984149694442749,-0.47708678245544434,-1.0128448009490967,2.236903667449951,-0.014421594329178333,-0.9892114400863647
3.9932374954223633,-0.47382107377052307,-1.0207692384719849,2.2406108379364014,-0.024867074564099312,-0.9860615730285645
4.002671718597412,-0.5171969532966614,-1.0272715091705322,2.2477545738220215,-0.026994096115231514,-0.9848982095718384
4.000082492828369,-0.6756682395935059,-1.0253946781158447,2.2498137950897217,-0.020224887877702713,-0.9845619797706604
3.982478380203247,-0.7840548753738403,-1.0270178318023682,2.251068353652954,-0.009003754705190659,-0.9857921600341797
3.9803073406219482,-0.8647202849388123,-1.0306533575057983,2.2542433738708496,0.00147324800491333,-0.9874377250671387
3.9861419200897217,-0.920330286026001,-1.0310059785842896,2.258751630783081,0.012895472347736359,-0.9888706207275391
3.992605209350586,-0.9597033262252808,-1.0280362367630005,2.2586863040924072,0.01172451302409172,-0.9857892990112305
3.9955015182495117,-0.9790346622467041,-1.0242538452148438,2.258655309677124,0.004187602549791336,-0.9798703789710999
3.9950268268585205,-0.9905869960784912,-1.0212184190750122,2.2590413093566895,-0.017423223704099655,-0.9774965047836304
3.9946768283843994,-1.0022627115249634,-1.0152963399887085,2.2576258182525635,-0.028731025755405426,-0.9822945594787598
3.991624593734741,-1.0036512613296509,-1.0091451406478882,2.25144100189209,-0.02355741709470749,-0.9863148927688599
3.9860551357269287,-0.999884307384491,-1.0038310289382935,2.280086040496826,-0.018389806151390076,-0.9829016923904419
3.9773049354553223,-0.9972159266471863,-1.0003883838653564,2.417659282684326,-0.014510090462863445,-0.9785218834877014
3.975245714187622,-0.9829453825950623,-1.0061804056167603,2.5598812103271484,-0.007578190416097641,-0.981876015663147
3.972830295562744,-0.9781240820884705,-1.0025572776794434,2.6562390327453613,-0.010744874365627766,-0.9797789454460144
3.973076343536377,-0.9857217073440552,-0.9949163198471069,2.709325075149536,-0.01800823211669922,-0.9803900718688965
3.9719996452331543,-0.9860875010490417,-0.9911399483680725,2.7386295795440674,-0.009254762902855873,-0.9789990782737732
3.972076892852783,-0.9740021228790283,-0.9967173337936401,2.7496843338012695,0.001581776887178421,-0.974858283996582
3.9725213050842285,-0.9623240232467651,-1.0040687322616577,2.7526731491088867,0.003008689731359482,-0.9748101234436035
3.9729104042053223,-0.9617784023284912,-1.009141445159912,2.7576000690460205,0.0018249452114105225,-0.976158618927002
3.9716579914093018,-0.9697206616401672,-1.014411211013794,2.7639224529266357,0.00682891346514225,-0.9752717614173889
3.974517583847046,-0.9707793593406677,-1.0144762992858887,2.7667975425720215,0.007715640589594841,-0.9755274057388306
3.9777109622955322,-0.9695301055908203,-1.010268211364746,2.7665514945983887,0.0043415650725364685,-0.9758768081665039
