4.469362258911133,-0.4967038631439209,-1.167941689491272,-0.02932235784828663,-0.011713724583387375,-1.2076541185379028
4.471690654754639,-0.48118188977241516,-1.1632698774337769,-0.02932235784828663,-0.011713724583387375,-1.2076541185379028
4.45663595199585,-0.473337322473526,-1.1618385314941406,-0.02932235784828663,-0.011713724583387375,-1.2076541185379028
4.464822292327881,-0.4640474021434784,-1.168362021446228,-0.03099515661597252,-0.008755053393542767,-1.2044717073440552
4.468507289886475,-0.46870195865631104,-1.179968237876892,-0.029179858043789864,-0.009774724952876568,-1.1997852325439453
4.478262424468994,-0.47516533732414246,-1.1860138177871704,-0.029179858043789864,-0.009774724952876568,-1.1997852325439453
4.480356216430664,-0.48927992582321167,-1.1918156147003174,-0.029179858043789864,-0.009774724952876568,-1.1997852325439453
4.4821648597717285,-0.49460193514823914,-1.1996324062347412,-0.029179858043789864,-0.009774724952876568,-1.1997852325439453
4.478796482086182,-0.5052275657653809,-1.2050832509994507,-0.029179858043789864,-0.009774724952876568,-1.1997852325439453
4.473407745361328,-0.5103051662445068,-1.1978156566619873,-0.026039976626634598,-0.010788646526634693,-1.1959810256958008
4.485935688018799,-0.507896900177002,-1.1919951438903809,-0.026039976626634598,-0.010788646526634693,-1.1959810256958008
4.491516590118408,-0.503663957118988,-1.1872845888137817,-0.025362936779856682,-0.0069225020706653595,-1.190915822982788
4.48870325088501,-0.49801796674728394,-1.1855756044387817,-0.02259383350610733,0.0024108346551656723,-1.1940256357192993
4.4836297035217285,-0.5027348399162292,-1.1898796558380127,-0.02407284639775753,-0.002275114879012108,-1.1951618194580078
4.4817609786987305,-0.5023558139801025,-1.1887327432632446,-0.02577710710465908,-0.010749198496341705,-1.1975524425506592
4.481153964996338,-0.4932147264480591,-1.1829839944839478,-0.02577710710465908,-0.010749198496341705,-1.1975524425506592
4.477993488311768,-0.4902034401893616,-1.1769994497299194,-0.024263199418783188,-0.021927999332547188,-1.1983013153076172
4.479023456573486,-0.4997594356536865,-1.170607566833496,-0.024263199418783188,-0.021927999332547188,-1.1983013153076172
4.487588882446289,-0.489634245634079,-1.1717252731323242,-0.024263199418783188,-0.021927999332547188,-1.1983013153076172
4.49148416519165,-0.4811941981315613,-1.1820518970489502,-0.020649489015340805,-0.02855777181684971,-1.2008243799209595
4.487130165100098,-0.48253658413887024,-1.1856045722961426,-0.02473423071205616,-0.035699762403964996,-1.2019609212875366
4.4798808097839355,-0.48017460107803345,-1.186043620109558,-0.02473423071205616,-0.035699762403964996,-1.2019609212875366
4.480984210968018,-0.4784398674964905,-1.1854859590530396,-0.03636383265256882,-0.03570452332496643,-1.2019189596176147
4.477405071258545,-0.4816671907901764,-1.1868833303451538,-0.03636383265256882,-0.03570452332496643,-1.2019189596176147
4.482156753540039,-0.4961971044540405,-1.187136173248291,-0.041052382439374924,-0.02419591322541237,-1.2011816501617432
4.490046501159668,-0.5013348460197449,-1.181599736213684,-0.041052382439374924,-0.02419591322541237,-1.2011816501617432
4.497077465057373,-0.4996207356452942,-1.1771799325942993,-0.041052382439374924,-0.02419591322541237,-1.2011816501617432
4.493821144104004,-0.4967467784881592,-1.1784085035324097,-0.03848447650671005,-0.005133315920829773,-1.2025479078292847
4.492822647094727,-0.5019951462745667,-1.1785578727722168,-0.03848447650671005,-0.005133315920829773,-1.2025479078292847
4.500162601470947,-0.5000036358833313,-1.1727765798568726,-0.03848447650671005,-0.005133315920829773,-1.2025479078292847
4.4981207847595215,-0.4965282082557678,-1.1670650243759155,-0.03848447650671005,-0.005133315920829773,-1.2025479078292847
4.482842445373535,-0.48696666955947876,-1.1708112955093384,-0.032313741743564606,0.007838426157832146,-1.2001475095748901
4.481691837310791,-0.48131272196769714,-1.1871654987335205,-0.032313741743564606,0.007838426157832146,-1.2001475095748901
4.479380130767822,-0.48088034987449646,-1.1944748163223267,-0.032313741743564606,0.007838426157832146,-1.2001475095748901
4.481609344482422,-0.4883534014225006,-1.2036504745483398,-0.032313741743564606,0.007838426157832146,-1.2001475095748901
4.48644495010376,-0.3397599458694458,-1.1983599662780762,-0.022196155041456223,0.011269068345427513,-1.20237135887146
4.495006084442139,-0.19339445233345032,-1.201305627822876,-0.022196155041456223,0.011269068345427513,-1.20237135887146
4.511416912078857,-0.10823129117488861,-1.2089862823486328,-0.022196155041456223,0.011269068345427513,-1.20237135887146
4.516548156738281,-0.06031743809580803,-1.2209604978561401,-0.018101967871189117,-0.0006747506558895111,-1.2051634788513184
4.509710788726807,-0.030834898352622986,-1.227708101272583,-0.019638337194919586,-0.014870946295559406,-1.2056987285614014
4.495159149169922,-0.008237609639763832,-1.227468729019165,-0.024532241746783257,-0.030917182564735413,-1.2054883241653442
4.4815545082092285,0.0032985778525471687,-1.2204710245132446,-0.02720365859568119,-0.033303335309028625,-1.2022792100906372
4.476076126098633,-0.0012426357716321945,-1.2178051471710205,-0.027095353230834007,-0.023131083697080612,-1.1991485357284546
4.479661464691162,-0.003944011405110359,-1.224859356880188,-0.027095353230834007,-0.023131083697080612,-1.1991485357284546
4.477931976318359,-0.0036507872864603996,-1.2232015132904053,-0.027095353230834007,-0.023131083697080612,-1.1991485357284546
4.490214824676514,-0.0105634406208992,-1.2209622859954834,-0.027095353230834007,-0.023131083697080612,-1.1991485357284546
4.474304676055908,-0.006922641769051552,-1.223047137260437,-0.027095353230834007,-0.023131083697080612,-1.1991485357284546
4.467167377471924,0.004470820538699627,-1.2242976427078247,-0.027095353230834007,-0.023131083697080612,-1.1991485357284546
4.463258266448975,0.018013056367635727,-1.2231073379516602,-0.027095353230834007,-0.023131083697080612,-1.1991485357284546
4.469114780426025,0.011341767385601997,-1.221256971359253,-0.022137422114610672,-0.012945851311087608,-1.1966787576675415
4.48634147644043,0.00933101773262024,-1.217159390449524,-0.022137422114610672,-0.012945851311087608,-1.1966787576675415
4.488336563110352,0.008771806955337524,-1.218839406967163,-0.01554262638092041,-0.0048540085554122925,-1.1972424983978271
4.48637056350708,0.000592830590903759,-1.2274938821792603,-0.015784122049808502,0.005714766681194305,-1.1958820819854736
4.484585762023926,-0.0058574378490448,-1.2293872833251953,-0.023176556453108788,0.013379104435443878,-1.1936554908752441
4.482169151306152,-0.009552733041346073,-1.2282602787017822,-0.03226418048143387,0.011876258999109268,-1.189762830734253
4.4723734855651855,-0.016950111836194992,-1.2266254425048828,-0.03711435943841934,0.007828546687960625,-1.1873365640640259
4.4782609939575195,-0.017441362142562866,-1.2240345478057861,-0.03711435943841934,0.007828546687960625,-1.1873365640640259
4.488684177398682,-0.007380413822829723,-1.2193101644515991,-0.03711435943841934,0.007828546687960625,-1.1873365640640259
4.504142761230469,0.0033249976113438606,-1.2133605480194092,-0.035648636519908905,0.010052278637886047,-1.187949538230896
4.497389793395996,0.013393173925578594,-1.2083797454833984,-0.035648636519908905,0.010052278637886047,-1.187949538230896
4.495299816131592,0.011392706073820591,-1.2081639766693115,-0.035648636519908905,0.010052278637886047,-1.187949538230896
4.486818790435791,0.0035836920142173767,-1.2132314443588257,-0.03317885100841522,0.013035617768764496,-1.1899553537368774
4.492119789123535,-0.003941343165934086,-1.2074556350708008,-0.037248581647872925,0.014265846461057663,-1.191777229309082
4.487417221069336,-0.005298270843923092,-1.199374794960022,-0.037248581647872925,0.014265846461057663,-1.191777229309082
4.486162185668945,0.011144015938043594,-1.1969660520553589,-0.035966455936431885,0.013347387313842773,-1.1924382448196411
4.481438159942627,0.015380341559648514,-1.1932728290557861,-0.035966455936431885,0.013347387313842773,-1.1924382448196411
4.479071617126465,0.014641843736171722,-1.1929131746292114,-0.029562093317508698,0.014953231438994408,-1.1928236484527588
4.481559753417969,0.012819621711969376,-1.1956932544708252,-0.029562093317508698,0.014953231438994408,-1.1928236484527588
4.493426322937012,0.008438577875494957,-1.1980761289596558,-0.019933948293328285,0.011947501450777054,-1.1950222253799438
4.503302574157715,0.0075992923229932785,-1.1999118328094482,-0.019933948293328285,0.011947501450777054,-1.1950222253799438
4.508579730987549,0.005556655116379261,-1.2005212306976318,-0.019933948293328285,0.011947501450777054,-1.1950222253799438
4.503791809082031,0.007409265264868736,-1.1964452266693115,-0.019933948293328285,0.011947501450777054,-1.1950222253799438
4.495493412017822,-0.0020221006125211716,-1.1942063570022583,-0.019933948293328285,0.011947501450777054,-1.1950222253799438
4.487879276275635,0.010550662875175476,-1.1969956159591675,-0.019933948293328285,0.011947501450777054,-1.1950222253799438
4.501853942871094,0.1561811864376068,-1.1921648979187012,-0.009501289576292038,0.007971592247486115,-1.1987719535827637
4.532241344451904,0.2746686637401581,-1.1807947158813477,-0.004449490457773209,0.008221693336963654,-1.1984646320343018
4.543483257293701,0.3615066111087799,-1.171857476234436,-0.005663532763719559,0.01244628056883812,-1.1996110677719116
4.530514240264893,0.44285234808921814,-1.175827145576477,-0.005663532763719559,0.01244628056883812,-1.1996110677719116
4.523923873901367,0.504732608795166,-1.1897231340408325,-0.005663532763719559,0.01244628056883812,-1.1996110677719116
4.511523723602295,0.536848783493042,-1.202286720275879,-0.005663532763719559,0.01244628056883812,-1.1996110677719116
4.4993791580200195,0.5425958037376404,-1.2031493186950684,-0.013528868556022644,0.01370186172425747,-1.2012680768966675
4.4917826652526855,0.5299572348594666,-1.197391152381897,-0.013528868556022644,0.01370186172425747,-1.2012680768966675
4.484680652618408,0.5230855941772461,-1.1920063495635986,-0.013528868556022644,0.01370186172425747,-1.2012680768966675
4.485490322113037,0.5170985460281372,-1.196786880493164,-0.019795073196291924,0.013195615261793137,-1.2025874853134155
4.485627174377441,0.5103924870491028,-1.20143723487854,-0.021255342289805412,0.01745113916695118,-1.2012083530426025
4.48241662979126,0.5043533444404602,-1.2040908336639404,-0.020219476893544197,0.023778388276696205,-1.199570894241333
4.482822895050049,0.4990968704223633,-1.2069748640060425,-0.022250086069107056,0.02222771756350994,-1.196028470993042
4.489153861999512,0.5040808320045471,-1.2068976163864136,-0.025990238413214684,0.018918387591838837,-1.1958754062652588
4.497165203094482,0.5058069229125977,-1.211059808731079,-0.025990238413214684,0.018918387591838837,-1.1958754062652588
4.506674289703369,0.5056140422821045,-1.2160003185272217,-0.027675101533532143,0.012306541204452515,-1.1977829933166504
4.512217044830322,0.5035386085510254,-1.2183936834335327,-0.027675101533532143,0.012306541204452515,-1.1977829933166504
4.512828826904297,0.49885475635528564,-1.2166472673416138,-0.027675101533532143,0.012306541204452515,-1.1977829933166504
4.509819030761719,0.5008339881896973,-1.210361361503601,-0.030429868027567863,0.0009188596159219742,-1.1972874402999878
4.504788398742676,0.5043123364448547,-1.2037550210952759,-0.03081211820244789,-0.003587501123547554,-1.1994647979736328
4.504172325134277,0.5054476857185364,-1.2029750347137451,-0.03081211820244789,-0.003587501123547554,-1.1994647979736328
4.505340099334717,0.5026757121086121,-1.2048604488372803,-0.03081211820244789,-0.003587501123547554,-1.1994647979736328
4.504675388336182,0.5033905506134033,-1.2039979696273804,-0.03081211820244789,-0.003587501123547554,-1.1994647979736328
4.49936580657959,0.5113446116447449,-1.2066693305969238,-0.03081211820244789,-0.003587501123547554,-1.1994647979736328
4.5013108253479,0.5152571201324463,-1.2097500562667847,-0.03081211820244789,-0.003587501123547554,-1.1994647979736328
4.499983310699463,0.5128052830696106,-1.2077054977416992,-0.03081211820244789,-0.003587501123547554,-1.1994647979736328
4.5028181076049805,0.5112078189849854,-1.203229546546936,-0.03081211820244789,-0.003587501123547554,-1.1994647979736328
4.506316661834717,0.5081411600112915,-1.1972795724868774,-0.03081211820244789,-0.003587501123547554,-1.1994647979736328
4.506870269775391,0.5161491632461548,-1.195299506187439,-0.03081211820244789,-0.003587501123547554,-1.1994647979736328
4.511528491973877,0.5058772563934326,-1.1960538625717163,-0.03081211820244789,-0.003587501123547554,-1.1994647979736328
4.517047882080078,0.49424588680267334,-1.2048943042755127,-0.03081211820244789,-0.003587501123547554,-1.1994647979736328
4.513852119445801,0.49292153120040894,-1.2086915969848633,-0.03081211820244789,-0.003587501123547554,-1.1994647979736328
4.5058417320251465,0.4947350323200226,-1.2098331451416016,-0.027033502236008644,-0.005004307255148888,-1.2010259628295898
4.495760917663574,0.4995860159397125,-1.2118664979934692,-0.024427127093076706,-0.007619673386216164,-1.20062255859375
4.496466636657715,0.4963028132915497,-1.2198072671890259,-0.024427127093076706,-0.007619673386216164,-1.20062255859375
4.507862567901611,0.49304690957069397,-1.2265832424163818,-0.024427127093076706,-0.007619673386216164,-1.20062255859375
4.511923313140869,0.49740928411483765,-1.2268930673599243,-0.0218468327075243,-0.010445795953273773,-1.20192289352417
4.505391597747803,0.5084120631217957,-1.2188711166381836,-0.0171508751809597,-0.01454379502683878,-1.202561616897583
4.500040531158447,0.5089203119277954,-1.2068978548049927,-0.01645839214324951,-0.012717898003757,-1.201239824295044
4.488139629364014,0.5007330179214478,-1.204972743988037,-0.01645839214324951,-0.012717898003757,-1.201239824295044
4.489555835723877,0.5003916025161743,-1.2102320194244385,-0.01645839214324951,-0.012717898003757,-1.201239824295044
4.493145942687988,0.5029686093330383,-1.216074824333191,-0.016635574400424957,-0.007393002510070801,-1.2010304927825928
4.4886064529418945,0.5174301266670227,-1.214345097541809,-0.016635574400424957,-0.007393002510070801,-1.2010304927825928
4.488340854644775,0.5195950865745544,-1.2188153266906738,-0.016635574400424957,-0.007393002510070801,-1.2010304927825928
4.492088317871094,0.5193732976913452,-1.2236320972442627,-0.016635574400424957,-0.007393002510070801,-1.2010304927825928
4.489505767822266,0.5073561668395996,-1.2249829769134521,-0.016635574400424957,-0.007393002510070801,-1.2010304927825928
4.490733623504639,0.49864858388900757,-1.2196189165115356,-0.015332281589508057,-0.003914201632142067,-1.2020246982574463
4.485212326049805,0.4862135946750641,-1.2162256240844727,-0.015332281589508057,-0.003914201632142067,-1.2020246982574463
4.486572742462158,0.4786716401576996,-1.2113041877746582,-0.014446035027503967,0.0015928801149129868,-1.203247308731079
4.493570327758789,0.4817567765712738,-1.200738787651062,-0.012914646416902542,0.011213479563593864,-1.205384373664856
4.495110988616943,0.5006042122840881,-1.193904161453247,-0.012207258492708206,0.019163966178894043,-1.2050002813339233
4.491440773010254,0.5097923278808594,-1.1944148540496826,-0.011259276419878006,0.019443269819021225,-1.2032926082611084
4.496567249298096,0.504149317741394,-1.1952524185180664,-0.0143028125166893,0.01864151656627655,-1.2037125825881958
4.4984612464904785,0.4985627233982086,-1.199840784072876,-0.019446086138486862,0.016602497547864914,-1.201494574546814
4.487509727478027,0.5063344836235046,-1.2040843963623047,-0.019446086138486862,0.016602497547864914,-1.201494574546814
4.487428665161133,0.5109845995903015,-1.2112679481506348,-0.019446086138486862,0.016602497547864914,-1.201494574546814
4.484328746795654,0.512830376625061,-1.2144805192947388,-0.02222342975437641,0.016350850462913513,-1.1972192525863647
4.490932941436768,0.5078961849212646,-1.2145644426345825,-0.025164371356368065,0.018556099385023117,-1.192717432975769
4.495010852813721,0.5061025619506836,-1.2091822624206543,-0.02741166390478611,0.018632180988788605,-1.1931489706039429
4.492831707000732,0.5034627914428711,-1.1992136240005493,-0.029881346970796585,0.014179021120071411,-1.1925685405731201
4.4926042556762695,0.49763476848602295,-1.1925957202911377,-0.02755543403327465,0.007181975990533829,-1.195064902305603
4.498571395874023,0.49226710200309753,-1.1876035928726196,-0.02755543403327465,0.007181975990533829,-1.195064902305603
4.504270076751709,0.5017799139022827,-1.1829079389572144,-0.02755543403327465,0.007181975990533829,-1.195064902305603
4.510372638702393,0.5038726329803467,-1.183581829071045,-0.02140188217163086,0.0019486360251903534,-1.1983087062835693
4.510133266448975,0.5169434547424316,-1.1898605823516846,-0.01462346687912941,-0.002122212201356888,-1.2007710933685303
4.5096516609191895,0.5207212567329407,-1.1947795152664185,-0.01085871085524559,-0.0032552964985370636,-1.20335853099823
4.500819683074951,0.5144888758659363,-1.1894104480743408,-0.011001717299222946,-0.0007138662040233612,-1.2065836191177368
4.486996650695801,0.49286773800849915,-1.177655577659607,-0.011001717299222946,-0.0007138662040233612,-1.2065836191177368
4.481453895568848,0.4817436933517456,-1.1699897050857544,-0.011001717299222946,-0.0007138662040233612,-1.2065836191177368
4.482063293457031,0.4853726029396057,-1.1748127937316895,-0.013027573004364967,0.007720563560724258,-1.2069332599639893
4.488141059875488,0.49050426483154297,-1.1875486373901367,-0.013027573004364967,0.007720563560724258,-1.2069332599639893
4.487838268280029,0.4928974509239197,-1.1922410726547241,-0.013027573004364967,0.007720563560724258,-1.2069332599639893
4.487277030944824,0.48469194769859314,-1.2000043392181396,-0.013812188059091568,0.01773371547460556,-1.2048815488815308
4.492570400238037,0.4881954789161682,-1.2020223140716553,-0.0144484993070364,0.02688029780983925,-1.203404426574707
4.491650104522705,0.4849410951137543,-1.1960828304290771,-0.0144484993070364,0.02688029780983925,-1.203404426574707
4.493107795715332,0.48046162724494934,-1.179522156715393,-0.0144484993070364,0.02688029780983925,-1.203404426574707
4.484619617462158,0.47554895281791687,-1.1639004945755005,-0.01411610096693039,0.025825217366218567,-1.201247215270996
4.501595973968506,0.4892602860927582,-1.1581979990005493,-0.01411610096693039,0.025825217366218567,-1.201247215270996
4.507805347442627,0.508677065372467,-1.1551156044006348,-0.012368664145469666,0.020763926208019257,-1.2000013589859009
4.501909255981445,0.5053935050964355,-1.1570940017700195,-0.012368664145469666,0.020763926208019257,-1.2000013589859009
4.502416610717773,0.5007593631744385,-1.1688059568405151,-0.014807673171162605,0.01552402600646019,-1.1986541748046875
4.509953498840332,0.5045865178108215,-1.1817042827606201,-0.014807673171162605,0.01552402600646019,-1.1986541748046875
4.504477024078369,0.503849983215332,-1.1873973608016968,-0.014807673171162605,0.01552402600646019,-1.1986541748046875
4.493106842041016,0.5053589344024658,-1.188686728477478,-0.014807673171162605,0.01552402600646019,-1.1986541748046875
4.485587120056152,0.49990442395210266,-1.194894552230835,-0.020423641428351402,0.012087151408195496,-1.195521354675293
4.485249996185303,0.4998798072338104,-1.1970103979110718,-0.020423641428351402,0.012087151408195496,-1.195521354675293
4.480792999267578,0.49817606806755066,-1.1912143230438232,-0.024456201121211052,0.011098619550466537,-1.1932094097137451
4.485915184020996,0.48877811431884766,-1.1788345575332642,-0.02769502066075802,0.00851939246058464,-1.1921114921569824
4.483431339263916,0.4884079098701477,-1.169911503791809,-0.027779143303632736,0.013844344764947891,-1.1903483867645264
4.48562479019165,0.5073439478874207,-1.1721327304840088,-0.02866845577955246,0.02240772172808647,-1.192430019378662
4.4938836097717285,0.5253881216049194,-1.1838914155960083,-0.02866845577955246,0.02240772172808647,-1.192430019378662
4.502162933349609,0.5247231721878052,-1.1973239183425903,-0.02751072496175766,0.024542585015296936,-1.1952440738677979
4.503575801849365,0.5222254395484924,-1.202434778213501,-0.02751072496175766,0.024542585015296936,-1.1952440738677979
4.495375156402588,0.5175976753234863,-1.2051305770874023,-0.02751072496175766,0.024542585015296936,-1.1952440738677979
4.4850263595581055,0.5180391669273376,-1.203818678855896,-0.02393972873687744,0.025974679738283157,-1.1966352462768555
4.487049579620361,0.5058637857437134,-1.2005641460418701,-0.023085588589310646,0.02561585232615471,-1.1983745098114014
4.49735689163208,0.5097044110298157,-1.1994140148162842,-0.023085588589310646,0.02561585232615471,-1.1983745098114014
4.501570224761963,0.5149301290512085,-1.19952392578125,-0.02436254918575287,0.024326149374246597,-1.2001125812530518
4.498879432678223,0.5091862678527832,-1.2031171321868896,-0.02436254918575287,0.024326149374246597,-1.2001125812530518
4.4939284324646,0.49483105540275574,-1.2101926803588867,-0.02436254918575287,0.024326149374246597,-1.2001125812530518
4.48750114440918,0.49255555868148804,-1.2077171802520752,-0.02436254918575287,0.024326149374246597,-1.2001125812530518
4.4827880859375,0.49641022086143494,-1.2003754377365112,-0.02436254918575287,0.024326149374246597,-1.2001125812530518
4.4863128662109375,0.4943212866783142,-1.1983985900878906,-0.02436254918575287,0.024326149374246597,-1.2001125812530518
4.487554550170898,0.501999020576477,-1.1957440376281738,-0.02436254918575287,0.024326149374246597,-1.2001125812530518
4.4793901443481445,0.5084269046783447,-1.192636489868164,-0.02436254918575287,0.024326149374246597,-1.2001125812530518
4.483604907989502,0.49806326627731323,-1.1925663948059082,-0.025527263060212135,0.021438445895910263,-1.198219656944275
4.49740743637085,0.4913806915283203,-1.204121470451355,-0.028247175738215446,0.01809532567858696,-1.1987590789794922
4.497387886047363,0.48999887704849243,-1.2116742134094238,-0.030002787709236145,0.014648284763097763,-1.1997461318969727
4.485675811767578,0.4921976625919342,-1.2108289003372192,-0.030002787709236145,0.014648284763097763,-1.1997461318969727
4.484010219573975,0.49428462982177734,-1.2162516117095947,-0.030002787709236145,0.014648284763097763,-1.1997461318969727
4.49558162689209,0.509640634059906,-1.2252421379089355,-0.030002787709236145,0.014648284763097763,-1.1997461318969727
4.501260757446289,0.5068660974502563,-1.2281105518341064,-0.028459206223487854,0.013389285653829575,-1.1985557079315186
4.499713897705078,0.501214325428009,-1.2222555875778198,-0.02815648727118969,0.01582850143313408,-1.1989516019821167
4.493155479431152,0.4898146986961365,-1.213215708732605,-0.02815648727118969,0.01582850143313408,-1.1989516019821167
4.488650798797607,0.48845863342285156,-1.2175583839416504,-0.02815648727118969,0.01582850143313408,-1.1989516019821167
4.486405849456787,0.48768115043640137,-1.2277553081512451,-0.027292273938655853,0.016265880316495895,-1.1982741355895996
4.492225646972656,0.49452143907546997,-1.2197868824005127,-0.027292273938655853,0.016265880316495895,-1.1982741355895996
4.481317043304443,0.5050124526023865,-1.2102007865905762,-0.027292273938655853,0.016265880316495895,-1.1982741355895996
4.4843058586120605,0.5127522349357605,-1.2070633172988892,-0.027292273938655853,0.016265880316495895,-1.1982741355895996
4.469136714935303,0.4937104284763336,-1.2056872844696045,-0.026920681819319725,0.013094395399093628,-1.1968203783035278
4.469136714935303,0.4937104284763336,-1.2056872844696045,-0.026920681819319725,0.013094395399093628,-1.1968203783035278
4.466793060302734,0.5000251531600952,-1.2124260663986206,-0.026920681819319725,0.013094395399093628,-1.1968203783035278
4.472512245178223,0.5117781162261963,-1.2178272008895874,-0.026920681819319725,0.013094395399093628,-1.1968203783035278
4.483193874359131,0.5096546411514282,-1.2236707210540771,-0.026920681819319725,0.013094395399093628,-1.1968203783035278
4.485685348510742,0.5009639263153076,-1.2288727760314941,-0.02503998950123787,0.011143572628498077,-1.1957790851593018
4.489831924438477,0.5063868761062622,-1.2296534776687622,-0.02503998950123787,0.011143572628498077,-1.1957790851593018
4.491735935211182,0.5115361213684082,-1.2242289781570435,-0.02503998950123787,0.011143572628498077,-1.1957790851593018
4.490367889404297,0.5092366933822632,-1.2165472507476807,-0.023156138136982918,0.012365583330392838,-1.1958569288253784
4.482833385467529,0.5081542134284973,-1.210936188697815,-0.01997925341129303,0.011882960796356201,-1.1966488361358643
4.503001689910889,0.49945735931396484,-1.2152526378631592,-0.0184620413929224,0.007297534495592117,-1.1983611583709717
4.500588417053223,0.49899014830589294,-1.2137285470962524,-0.0184620413929224,0.007297534495592117,-1.1983611583709717
4.502076148986816,0.4971926808357239,-1.2145706415176392,-0.0184620413929224,0.007297534495592117,-1.1983611583709717
4.502697944641113,0.5019111633300781,-1.2105287313461304,-0.01829216256737709,0.0027651023119688034,-1.2003220319747925
4.498014450073242,0.5001522898674011,-1.2002168893814087,-0.018087070435285568,1.6734004020690918e-05,-1.2016092538833618
4.492738246917725,0.4987168610095978,-1.1926605701446533,-0.018087070435285568,1.6734004020690918e-05,-1.2016092538833618
4.494289398193359,0.5005524158477783,-1.1888582706451416,-0.020257925614714622,-0.003242161124944687,-1.2016749382019043
4.4927167892456055,0.49618902802467346,-1.185659408569336,-0.023044398054480553,-0.004811404272913933,-1.19996178150177
4.486241817474365,0.4858943223953247,-1.1802990436553955,-0.023044398054480553,-0.004811404272913933,-1.19996178150177
4.486631870269775,0.4855743944644928,-1.1788220405578613,-0.024185767397284508,-0.00259571336209774,-1.199082612991333
4.491401195526123,0.49476125836372375,-1.1760554313659668,-0.024185767397284508,-0.00259571336209774,-1.199082612991333
4.501777648925781,0.4960189759731293,-1.1755595207214355,-0.024185767397284508,-0.00259571336209774,-1.199082612991333
4.49566650390625,0.4986661672592163,-1.175394892692566,-0.024185767397284508,-0.00259571336209774,-1.199082612991333
4.497621059417725,0.5019800066947937,-1.1811132431030273,-0.024185767397284508,-0.00259571336209774,-1.199082612991333
4.491658687591553,0.5145484209060669,-1.1863051652908325,-0.020929548889398575,-0.004009053111076355,-1.199723482131958
4.490332126617432,0.5221686363220215,-1.1874300241470337,-0.018500208854675293,-0.010181266814470291,-1.199759840965271
4.483115196228027,0.5177684426307678,-1.1967061758041382,-0.016303230077028275,-0.0228390134871006,-1.2002649307250977
4.484531402587891,0.5170390009880066,-1.2046080827713013,-0.01585349440574646,-0.030856765806674957,-1.2001115083694458
4.4841485023498535,0.520983099937439,-1.2068969011306763,-0.01585349440574646,-0.030856765806674957,-1.2001115083694458
4.473296642303467,0.5331618189811707,-1.2024295330047607,-0.01585349440574646,-0.030856765806674957,-1.2001115083694458
4.469547271728516,0.5266966223716736,-1.1995559930801392,-0.01585349440574646,-0.030856765806674957,-1.2001115083694458
4.476176738739014,0.5205978155136108,-1.20675790309906,-0.018326304852962494,-0.02835248038172722,-1.1983734369277954
4.481207847595215,0.5115725994110107,-1.2156723737716675,-0.018326304852962494,-0.02835248038172722,-1.1983734369277954
4.479985237121582,0.5072013139724731,-1.2188307046890259,-0.018326304852962494,-0.02835248038172722,-1.1983734369277954
4.481736660003662,0.49881207942962646,-1.217741847038269,-0.02113526687026024,-0.025378648191690445,-1.1979644298553467
4.484111785888672,0.4924527704715729,-1.2154234647750854,-0.02243538200855255,-0.025991270318627357,-1.1986745595932007
4.485722541809082,0.4972023367881775,-1.214600920677185,-0.02603025734424591,-0.024443769827485085,-1.201351523399353
4.481180667877197,0.5038049221038818,-1.2059592008590698,-0.02603025734424591,-0.024443769827485085,-1.201351523399353
4.488529205322266,0.5022374987602234,-1.2004941701889038,-0.02603025734424591,-0.024443769827485085,-1.201351523399353
4.496063232421875,0.5055817365646362,-1.195812463760376,-0.02603025734424591,-0.024443769827485085,-1.201351523399353
4.495744228363037,0.5180473327636719,-1.1933964490890503,-0.030464790761470795,-0.023922041058540344,-1.2028541564941406
4.494626998901367,0.5100933313369751,-1.2000778913497925,-0.029903259128332138,-0.018427101895213127,-1.213827133178711
4.490500450134277,0.5112459659576416,-1.2047679424285889,-0.029903259128332138,-0.018427101895213127,-1.213827133178711
4.487619400024414,0.519169807434082,-1.2023186683654785,0.1424005776643753,0.024217456579208374,-1.2156938314437866
4.473748207092285,0.5179235339164734,-1.1923396587371826,0.1424005776643753,0.024217456579208374,-1.2156938314437866
4.470155239105225,0.5116556286811829,-1.186069130897522,0.1424005776643753,0.024217456579208374,-1.2156938314437866
4.475344181060791,0.49637025594711304,-1.1840027570724487,0.4774131178855896,0.08885268867015839,-1.207228422164917
4.48494815826416,0.4947543144226074,-1.1801128387451172,0.4774131178855896,0.08885268867015839,-1.207228422164917
4.48811674118042,0.4994620084762573,-1.18024480342865,0.4774131178855896,0.08885268867015839,-1.207228422164917
4.49013614654541,0.5116639733314514,-1.1860581636428833,0.4774131178855896,0.08885268867015839,-1.207228422164917
4.487232208251953,0.5169060826301575,-1.1930512189865112,0.7648248672485352,0.11267507076263428,-1.2029998302459717
4.4914045333862305,0.5249891877174377,-1.1961365938186646,0.9401808381080627,0.1241074874997139,-1.212267518043518
4.483697414398193,0.5294283628463745,-1.2024818658828735,0.9401808381080627,0.1241074874997139,-1.212267518043518
4.4759674072265625,0.5187593102455139,-1.2055562734603882,0.9401808381080627,0.1241074874997139,-1.212267518043518
4.471474647521973,0.5187348127365112,-1.202921748161316,0.9401808381080627,0.1241074874997139,-1.212267518043518
4.47491455078125,0.529716968536377,-1.198872447013855,0.9401808381080627,0.1241074874997139,-1.212267518043518
4.4817657470703125,0.5236650705337524,-1.1998103857040405,0.9401808381080627,0.1241074874997139,-1.212267518043518
4.489081382751465,0.5160614252090454,-1.2022924423217773,0.9401808381080627,0.1241074874997139,-1.212267518043518
4.496760845184326,0.5022005438804626,-1.203867793083191,0.9401808381080627,0.1241074874997139,-1.212267518043518
4.507251739501953,0.5002156496047974,-1.2063403129577637,0.9401808381080627,0.1241074874997139,-1.212267518043518
4.505316734313965,0.5119448304176331,-1.2105599641799927,0.9401808381080627,0.1241074874997139,-1.212267518043518
4.507119655609131,0.513170063495636,-1.2162697315216064,1.0502781867980957,0.14832961559295654,-1.224340796470642
4.50159215927124,0.51180100440979,-1.2140824794769287,1.0502781867980957,0.14832961559295654,-1.224340796470642
4.500223636627197,0.5078895092010498,-1.216020941734314,1.0502781867980957,0.14832961559295654,-1.224340796470642
4.505339622497559,0.4947097897529602,-1.2216023206710815,1.122075080871582,0.17207804322242737,-1.2324520349502563
4.511209964752197,0.48587843775749207,-1.2209874391555786,1.168470025062561,0.1834871470928192,-1.2347623109817505
4.511194705963135,0.49180343747138977,-1.2218756675720215,1.2002055644989014,0.1926155984401703,-1.232412338256836
4.515810966491699,0.4977774918079376,-1.2237730026245117,1.2002055644989014,0.1926155984401703,-1.232412338256836
4.518245697021484,0.492196649312973,-1.22347092628479,1.2002055644989014,0.1926155984401703,-1.232412338256836
4.517600059509277,0.49033573269844055,-1.2180850505828857,1.2002055644989014,0.1926155984401703,-1.232412338256836
4.512905597686768,0.4919471740722656,-1.2095961570739746,1.2002055644989014,0.1926155984401703,-1.232412338256836
4.50781774520874,0.4952467083930969,-1.2022950649261475,1.2002055644989014,0.1926155984401703,-1.232412338256836
4.504060745239258,0.49603521823883057,-1.1984645128250122,1.2116239070892334,0.20250947773456573,-1.2284892797470093
4.519964694976807,0.5015528798103333,-1.2056207656860352,1.2116239070892334,0.20250947773456573,-1.2284892797470093
4.523254871368408,0.5068731904029846,-1.212563157081604,1.2098889350891113,0.20487654209136963,-1.2249120473861694
4.519805908203125,0.49853548407554626,-1.2056392431259155,1.2098889350891113,0.20487654209136963,-1.2249120473861694
4.520626068115234,0.48940953612327576,-1.198779582977295,1.2031232118606567,0.2055383324623108,-1.2223684787750244
4.514965534210205,0.48969706892967224,-1.2106703519821167,1.2031232118606567,0.2055383324623108,-1.2223684787750244
4.50913667678833,0.5015124082565308,-1.220362901687622,1.196878433227539,0.19907310605049133,-1.220482587814331
4.509060382843018,0.5076271891593933,-1.2178798913955688,1.1894856691360474,0.19544146955013275,-1.2160906791687012
4.5047078132629395,0.5095974802970886,-1.2169898748397827,1.1894856691360474,0.19544146955013275,-1.2160906791687012
4.496659755706787,0.509410560131073,-1.2181384563446045,1.1894856691360474,0.19544146955013275,-1.2160906791687012
4.503767490386963,0.5042394995689392,-1.2161530256271362,1.1894856691360474,0.19544146955013275,-1.2160906791687012
4.513053894042969,0.511206865310669,-1.2111698389053345,1.1894856691360474,0.19544146955013275,-1.2160906791687012
4.507175445556641,0.5105269551277161,-1.2087091207504272,1.1834757328033447,0.19878555834293365,-1.2120486497879028
4.499161243438721,0.4995255768299103,-1.2082509994506836,1.1768770217895508,0.18919214606285095,-1.212437391281128
4.497913360595703,0.5083176493644714,-1.2079811096191406,1.1768770217895508,0.18919214606285095,-1.212437391281128
4.5012311935424805,0.499678373336792,-1.2021476030349731,1.1768770217895508,0.18919214606285095,-1.212437391281128
4.493371963500977,0.49458810687065125,-1.1970869302749634,1.1768770217895508,0.18919214606285095,-1.212437391281128
4.483734130859375,0.4973042607307434,-1.1974574327468872,1.1768770217895508,0.18919214606285095,-1.212437391281128
4.4929633140563965,0.5200674533843994,-1.2037341594696045,1.1768770217895508,0.18919214606285095,-1.212437391281128
4.5016326904296875,0.5262362360954285,-1.2065472602844238,1.1768770217895508,0.18919214606285095,-1.212437391281128
4.500765323638916,0.5231742262840271,-1.2012858390808105,1.1810352802276611,0.17971254885196686,-1.2118359804153442
4.4923553466796875,0.5133384466171265,-1.201301097869873,1.1889575719833374,0.17445246875286102,-1.2120312452316284
4.497566223144531,0.5249204039573669,-1.2063690423965454,1.1880009174346924,0.15773990750312805,-1.214652180671692
4.500790596008301,0.5151457190513611,-1.2042871713638306,1.1818214654922485,0.14368869364261627,-1.217204213142395
4.505664348602295,0.5108726024627686,-1.2035269737243652,1.1757961511611938,0.14311380684375763,-1.2158640623092651
4.513033390045166,0.5076959133148193,-1.2088277339935303,1.1690897941589355,0.15733054280281067,-1.2145423889160156
4.517003536224365,0.4948413372039795,-1.2114603519439697,1.1690897941589355,0.15733054280281067,-1.2145423889160156
4.511826992034912,0.4855087101459503,-1.2106916904449463,1.1638739109039307,0.17859062552452087,-1.2116492986679077
4.505183219909668,0.49639996886253357,-1.2087551355361938,1.1638739109039307,0.17859062552452087,-1.2116492986679077
4.502308368682861,0.5055732131004333,-1.2077494859695435,1.1638739109039307,0.17859062552452087,-1.2116492986679077
4.50003719329834,0.500759482383728,-1.206783652305603,1.1638739109039307,0.17859062552452087,-1.2116492986679077
4.508562088012695,0.5088688135147095,-1.2090922594070435,1.1634119749069214,0.18957746028900146,-1.213587760925293
4.5081048011779785,0.5199609994888306,-1.208902359008789,1.1634119749069214,0.18957746028900146,-1.213587760925293
4.50578498840332,0.5342463850975037,-1.2042967081069946,1.1634119749069214,0.18957746028900146,-1.213587760925293
4.5073418617248535,0.5378053188323975,-1.200456976890564,1.1634119749069214,0.18957746028900146,-1.213587760925293
4.5041823387146,0.5263383388519287,-1.194052815437317,1.1621508598327637,0.19041205942630768,-1.2149208784103394
4.499023914337158,0.5144072771072388,-1.1891230344772339,1.1621508598327637,0.19041205942630768,-1.2149208784103394
4.501009464263916,0.5038741230964661,-1.1832584142684937,1.1621508598327637,0.19041205942630768,-1.2149208784103394
4.508513927459717,0.4875546097755432,-1.188443899154663,1.1604194641113281,0.19321365654468536,-1.2161052227020264
4.506620407104492,0.4766661524772644,-1.192643404006958,1.158504843711853,0.1917133927345276,-1.2121180295944214
4.508950233459473,0.47839584946632385,-1.1886074542999268,1.164074182510376,0.1925864964723587,-1.2123279571533203
4.507601737976074,0.4901565909385681,-1.1781351566314697,1.164074182510376,0.1925864964723587,-1.2123279571533203
4.504528045654297,0.48812249302864075,-1.17555570602417,1.164074182510376,0.1925864964723587,-1.2123279571533203
4.492147445678711,0.498914897441864,-1.1777015924453735,1.164074182510376,0.1925864964723587,-1.2123279571533203
4.488811016082764,0.5112258195877075,-1.1808080673217773,1.1756755113601685,0.20225128531455994,-1.2135752439498901
4.491303443908691,0.5187692046165466,-1.1886838674545288,1.1756755113601685,0.20225128531455994,-1.2135752439498901
4.492548942565918,0.5298631191253662,-1.1988757848739624,1.1756755113601685,0.20225128531455994,-1.2135752439498901
4.497066974639893,0.5307971239089966,-1.2052198648452759,1.185021162033081,0.20966604351997375,-1.2135459184646606
4.503264904022217,0.5174021124839783,-1.2121745347976685,1.185021162033081,0.20966604351997375,-1.2135459184646606
4.505161762237549,0.5062718987464905,-1.2145243883132935,1.185021162033081,0.20966604351997375,-1.2135459184646606
4.504440784454346,0.49521493911743164,-1.2176854610443115,1.185021162033081,0.20966604351997375,-1.2135459184646606
4.502228260040283,0.48733848333358765,-1.2229552268981934,1.185021162033081,0.20966604351997375,-1.2135459184646606
4.509644985198975,0.4796639680862427,-1.2273350954055786,1.185021162033081,0.20966604351997375,-1.2135459184646606
4.510669231414795,0.48258668184280396,-1.2250585556030273,1.1884111166000366,0.21855978667736053,-1.2125176191329956
4.50579309463501,0.4897175133228302,-1.2268198728561401,1.1884111166000366,0.21855978667736053,-1.2125176191329956
4.503525733947754,0.5015372037887573,-1.2300916910171509,1.1913155317306519,0.22170256078243256,-1.211509108543396
4.5069780349731445,0.5005767941474915,-1.2315610647201538,1.1913155317306519,0.22170256078243256,-1.211509108543396
4.510439395904541,0.4994065761566162,-1.2291420698165894,1.1913155317306519,0.22170256078243256,-1.211509108543396
4.510823726654053,0.49517202377319336,-1.2233893871307373,1.1913155317306519,0.22170256078243256,-1.211509108543396
4.506485939025879,0.48935726284980774,-1.2226243019104004,1.1928091049194336,0.21837350726127625,-1.2109993696212769
4.507022857666016,0.4987388253211975,-1.2277026176452637,1.192454218864441,0.217532217502594,-1.2085844278335571
4.507140159606934,0.5110100507736206,-1.2267872095108032,1.192454218864441,0.217532217502594,-1.2085844278335571
4.505444049835205,0.5120502710342407,-1.2216405868530273,1.1897920370101929,0.2123621255159378,-1.2044686079025269
4.505484104156494,0.49687138199806213,-1.217403769493103,1.185732364654541,0.2054508924484253,-1.203386902809143
4.508292198181152,0.4891146421432495,-1.2157195806503296,1.185732364654541,0.2054508924484253,-1.203386902809143
4.512998104095459,0.48663830757141113,-1.2106153964996338,1.185732364654541,0.2054508924484253,-1.203386902809143
4.509699821472168,0.4938754439353943,-1.2021634578704834,1.185732364654541,0.2054508924484253,-1.203386902809143
4.497629165649414,0.49958333373069763,-1.1908937692642212,1.185732364654541,0.2054508924484253,-1.203386902809143
4.4965667724609375,0.49696654081344604,-1.1887909173965454,1.185732364654541,0.2054508924484253,-1.203386902809143
4.493871212005615,0.5093176960945129,-1.1902581453323364,1.1853878498077393,0.2082108110189438,-1.2038769721984863
4.500290393829346,0.5150816440582275,-1.1928008794784546,1.1853878498077393,0.2082108110189438,-1.2038769721984863
4.503392696380615,0.516865074634552,-1.1926229000091553,1.18076491355896,0.23053880035877228,-1.2023168802261353
4.498490333557129,0.5150618553161621,-1.1909468173980713,1.18076491355896,0.23053880035877228,-1.2023168802261353
4.4894843101501465,0.5156732797622681,-1.1931828260421753,1.1730318069458008,0.24212630093097687,-1.204994559288025
4.495121479034424,0.5216706991195679,-1.197962760925293,1.1730318069458008,0.24212630093097687,-1.204994559288025
4.503891468048096,0.5122048258781433,-1.2039844989776611,1.1718250513076782,0.22979944944381714,-1.2063426971435547
4.508203983306885,0.4944157004356384,-1.1990697383880615,1.1738612651824951,0.22058820724487305,-1.2052363157272339
4.505764484405518,0.4848964810371399,-1.18937087059021,1.1738612651824951,0.22058820724487305,-1.2052363157272339
4.507073402404785,0.49339839816093445,-1.1867464780807495,1.1738612651824951,0.22058820724487305,-1.2052363157272339
4.507919788360596,0.5026093125343323,-1.188908576965332,1.1738612651824951,0.22058820724487305,-1.2052363157272339
4.497963905334473,0.5023548603057861,-1.19431734085083,1.176697850227356,0.21941141784191132,-1.2070977687835693
4.495867729187012,0.5052599310874939,-1.199291706085205,1.180944800376892,0.2177569419145584,-1.2147587537765503
4.4942779541015625,0.5117230415344238,-1.1975892782211304,1.1845371723175049,0.20887970924377441,-1.218369960784912
4.496149063110352,0.5034824013710022,-1.2001442909240723,1.1870408058166504,0.20086976885795593,-1.2181169986724854
4.492949962615967,0.49680399894714355,-1.2003607749938965,1.1900193691253662,0.1978594809770584,-1.2180722951889038
4.485832214355469,0.49793514609336853,-1.1975947618484497,1.1900193691253662,0.1978594809770584,-1.2180722951889038
4.490013122558594,0.5039525032043457,-1.1941567659378052,1.1918151378631592,0.19911716878414154,-1.2163747549057007
4.494377136230469,0.5052549242973328,-1.191145658493042,1.1873141527175903,0.1966821551322937,-1.2166577577590942
4.500655174255371,0.5078932642936707,-1.1850414276123047,1.1873141527175903,0.1966821551322937,-1.2166577577590942
4.500110626220703,0.5134337544441223,-1.1820926666259766,1.1873141527175903,0.1966821551322937,-1.2166577577590942
4.5102763175964355,0.5202595591545105,-1.1815612316131592,1.1873141527175903,0.1966821551322937,-1.2166577577590942
4.5120530128479,0.5147625207901001,-1.1830275058746338,1.1873141527175903,0.1966821551322937,-1.2166577577590942
4.510573387145996,0.503287672996521,-1.1846033334732056,1.1873141527175903,0.1966821551322937,-1.2166577577590942
4.5014872550964355,0.48953118920326233,-1.183105230331421,1.1873141527175903,0.1966821551322937,-1.2166577577590942
4.49176025390625,0.495455801486969,-1.1867821216583252,1.1873141527175903,0.1966821551322937,-1.2166577577590942
4.486350059509277,0.5100716948509216,-1.196218729019165,1.184600830078125,0.19424401223659515,-1.2176012992858887
4.488277912139893,0.509898841381073,-1.203973650932312,1.184600830078125,0.19424401223659515,-1.2176012992858887
4.487777233123779,0.5091129541397095,-1.2098475694656372,1.184600830078125,0.19424401223659515,-1.2176012992858887
4.494125843048096,0.644760251045227,-1.2008910179138184,1.1844239234924316,0.1957121193408966,-1.2152329683303833
4.49849271774292,0.7786579132080078,-1.1928274631500244,1.1844239234924316,0.1957121193408966,-1.2152329683303833
4.4947052001953125,0.8774595856666565,-1.18990159034729,1.1843973398208618,0.19364140927791595,-1.209774374961853
4.492918014526367,0.9377409815788269,-1.1927927732467651,1.1852129697799683,0.19189678132534027,-1.210575819015503
4.482336044311523,0.9789740443229675,-1.1885318756103516,1.1834710836410522,0.2073793113231659,-1.2155499458312988
4.479451656341553,1.0021886825561523,-1.1881235837936401,1.1829034090042114,0.21330496668815613,-1.2170640230178833
4.479149341583252,1.0132670402526855,-1.1951160430908203,1.1829034090042114,0.21330496668815613,-1.2170640230178833
4.470212459564209,1.0294610261917114,-1.2016326189041138,1.1829034090042114,0.21330496668815613,-1.2170640230178833
4.46851921081543,1.0328048467636108,-1.2021710872650146,1.1834259033203125,0.20110520720481873,-1.2180681228637695
4.476437091827393,1.0206283330917358,-1.2022165060043335,1.1834259033203125,0.20110520720481873,-1.2180681228637695
4.48099422454834,1.015305519104004,-1.1986072063446045,1.1875405311584473,0.20730391144752502,-1.21515691280365
4.48579740524292,1.0109710693359375,-1.2009751796722412,1.1875405311584473,0.20730391144752502,-1.21515691280365
4.4893903732299805,1.018354892730713,-1.2037023305892944,1.1898540258407593,0.22126397490501404,-1.2190874814987183
4.488091945648193,1.0279518365859985,-1.2031753063201904,1.1898540258407593,0.22126397490501404,-1.2190874814987183
4.486795902252197,1.0363513231277466,-1.197872281074524,1.1898540258407593,0.22126397490501404,-1.2190874814987183
4.482367515563965,1.0159075260162354,-1.198540210723877,1.1898540258407593,0.22126397490501404,-1.2190874814987183
4.48606538772583,1.0239046812057495,-1.1945487260818481,1.1970958709716797,0.2119871973991394,-1.2168290615081787
4.484156131744385,1.0232819318771362,-1.1954600811004639,1.1971545219421387,0.19488149881362915,-1.2137770652770996
4.484410762786865,1.0139687061309814,-1.1966519355773926,1.1921361684799194,0.18984343111515045,-1.2125358581542969
4.48119592666626,1.0234538316726685,-1.1932440996170044,1.1870564222335815,0.19609886407852173,-1.211501121520996
4.478991985321045,1.0310300588607788,-1.1797674894332886,1.1870564222335815,0.19609886407852173,-1.211501121520996
4.481819152832031,1.0315308570861816,-1.1667892932891846,1.1870564222335815,0.19609886407852173,-1.211501121520996
4.473694801330566,1.0281879901885986,-1.1658596992492676,1.1849184036254883,0.20315800607204437,-1.2128962278366089
4.474969863891602,1.0243182182312012,-1.1701786518096924,1.1849184036254883,0.20315800607204437,-1.2128962278366089
4.4856085777282715,1.0064936876296997,-1.1756712198257446,1.1835272312164307,0.2030302882194519,-1.2128584384918213
4.489765644073486,0.9981706738471985,-1.183123230934143,1.1814026832580566,0.20358914136886597,-1.2108935117721558
4.4870924949646,1.0091722011566162,-1.1831047534942627,1.1814026832580566,0.20358914136886597,-1.2108935117721558
4.481564521789551,1.00107741355896,-1.1857305765151978,1.1814026832580566,0.20358914136886597,-1.2108935117721558
4.478652477264404,0.9976537823677063,-1.1918829679489136,1.1814026832580566,0.20358914136886597,-1.2108935117721558
4.480113983154297,0.9947760105133057,-1.2001155614852905,1.1822500228881836,0.2098352164030075,-1.2113014459609985
4.4823455810546875,0.9919955134391785,-1.2069897651672363,1.1822500228881836,0.2098352164030075,-1.2113014459609985
4.4831390380859375,0.9991469979286194,-1.2106530666351318,1.1832594871520996,0.20878536999225616,-1.2140108346939087
4.480495452880859,0.9971087574958801,-1.2085604667663574,1.1840676069259644,0.21343079209327698,-1.2141191959381104
4.48124885559082,0.9940592646598816,-1.2042245864868164,1.1848335266113281,0.22074159979820251,-1.2134593725204468
4.474753379821777,0.9925882816314697,-1.202194333076477,1.1826740503311157,0.22023789584636688,-1.2150801420211792
4.47561502456665,0.989986002445221,-1.1971937417984009,1.183265209197998,0.2245025932788849,-1.2102046012878418
4.476706504821777,0.9789671897888184,-1.1886264085769653,1.183265209197998,0.2245025932788849,-1.2102046012878418
4.473955154418945,0.9694057106971741,-1.1802740097045898,1.183265209197998,0.2245025932788849,-1.2102046012878418
4.474442005157471,0.9838200807571411,-1.1782050132751465,1.1738405227661133,0.24681857228279114,-1.2122418880462646
4.475817680358887,0.9990014433860779,-1.1771734952926636,1.1738405227661133,0.24681857228279114,-1.2122418880462646
4.481197834014893,1.0143612623214722,-1.1809396743774414,1.1707265377044678,0.2510843276977539,-1.2108683586120605
4.4767632484436035,1.0161571502685547,-1.190071940422058,1.1707265377044678,0.2510843276977539,-1.2108683586120605
4.467763423919678,1.0277700424194336,-1.1962562799453735,1.1707265377044678,0.2510843276977539,-1.2108683586120605
4.462670803070068,1.024796485900879,-1.2025700807571411,1.1816251277923584,0.2426433563232422,-1.21174156665802
