-0.04341945797204971,-0.03259945288300514,-0.02411527745425701,0,0,0
-0.04330051317811012,-0.032588325440883636,-0.02426004596054554,0,0,0
-0.043778810650110245,-0.032531414180994034,-0.024453220888972282,0,0,0
-0.04369863122701645,-0.032476093620061874,-0.024371791630983353,0,0,0
-0.04316950589418411,-0.032420091331005096,-0.024246713146567345,0,0,0
-0.042296331375837326,-0.03258085250854492,-0.024115748703479767,0,0,0
-0.04261759668588638,-0.03272107616066933,-0.024263380095362663,0,0,0
-0.04304985702037811,-0.03260452300310135,-0.02441934309899807,0,0,0
-0.04290170967578888,-0.03262502700090408,-0.02438265271484852,0,0,0
-0.04329448565840721,-0.03262884542346001,-0.024386495351791382,0,0,0
-0.04349755495786667,-0.03258094936609268,-0.024382468312978745,0,0,0
-0.04324229806661606,-0.03254493325948715,-0.02427286095917225,0,0,0
-0.04291679710149765,-0.032428354024887085,-0.024187711998820305,0,0,0
-0.04266369342803955,-0.03245443105697632,-0.023984793573617935,0,0,0
-0.04279191046953201,-0.0325973704457283,-0.02398260310292244,0,0,0
-0.04246988520026207,-0.032618336379528046,-0.02413751184940338,0,0,0
-0.04302751645445824,-0.032617196440696716,-0.02436838485300541,0,0,0
-0.0433393195271492,-0.032322514802217484,-0.024585776031017303,0,0,0
-0.042899757623672485,-0.03241220861673355,-0.024480469524860382,0,0,0
-0.042520273476839066,-0.032500818371772766,-0.024337580427527428,0,0,0
-0.042337872087955475,-0.032686538994312286,-0.024231061339378357,0,0,0
-0.04248350113630295,-0.03261107951402664,-0.024303661659359932,0,0,0
-0.04257732257246971,-0.032589107751846313,-0.024237893521785736,0,0,0
-0.04260297864675522,-0.03252268582582474,-0.024219628423452377,0,0,0
-0.042885515838861465,-0.03261282667517662,-0.024288438260555267,0,0,0
-0.0430230051279068,-0.032443393021821976,-0.024391045793890953,0,0,0
-0.04296775162220001,-0.03241167590022087,-0.024291591718792915,0,0,0
-0.0427534356713295,-0.03244420513510704,-0.024191882461309433,0,0,0
-0.042804963886737823,-0.03242884948849678,-0.024232201278209686,0,0,0
-0.04308256506919861,-0.03233422338962555,-0.024284563958644867,0,0,0
-0.04283509775996208,-0.032114528119564056,-0.02420664392411709,0,0,0
-0.04306598752737045,-0.03213047608733177,-0.02426324412226677,0,0,0
-0.04296642541885376,-0.03178893402218819,-0.02437419630587101,0,0,0
-0.04281860962510109,-0.03182170167565346,-0.02417764812707901,0,0,0
-0.04284992441534996,-0.031971078366041183,-0.024142151698470116,0,0,0
-0.04330117255449295,-0.03236693888902664,-0.024358654394745827,0,0,0
-0.04340725392103195,-0.032504819333553314,-0.02457723207771778,0,0,0
-0.04268903657793999,-0.03251609206199646,-0.024406084790825844,0,0,0
-0.04268845170736313,-0.03301062807440758,-0.024156639352440834,0,0,0
-0.04326802119612694,-0.033101487904787064,-0.024215102195739746,0,0,0
-0.04313821718096733,-0.03308122977614403,-0.02400851994752884,0,0,0
-0.04245421290397644,-0.033401813358068466,-0.024005331099033356,0,0,0
-0.0418328195810318,-0.03335626795887947,-0.02422509342432022,0,0,0
-0.041663434356451035,-0.033234965056180954,-0.024256745353341103,0,0,0
-0.04079458862543106,-0.03341492637991905,-0.024062631651759148,0,0,0
-0.03966202586889267,-0.03367093205451965,-0.023547012358903885,0,0,0
-0.03872979059815407,-0.03385628014802933,-0.025266123935580254,0,0,0
-0.02443814091384411,-0.03057757019996643,-0.05183911323547363,0,0,0
0.016547609120607376,-0.02891712076961994,-0.1319454312324524,0,0,0
0.03829888626933098,-0.03029898926615715,-0.21169152855873108,0,0,0
0.04435684159398079,-0.03526313975453377,-0.28553181886672974,0,0,0
0.03376791253685951,-0.04072041064500809,-0.36125612258911133,0,0,0
0.023830030113458633,-0.04400927573442459,-0.4396279752254486,0,0,0
0.01581321656703949,-0.03891102224588394,-0.5172526836395264,0,0,0
0.009958699345588684,-0.04044345021247864,-0.5990238785743713,0,0,0
0.00693618506193161,-0.039601877331733704,-0.6790735721588135,0,0,0
0.0028607510030269623,-0.039242587983608246,-0.7422057390213013,0,0,0
-0.0025909356772899628,-0.03831319510936737,-0.7989463806152344,0,0,0
-0.0057648420333862305,-0.03514157235622406,-0.8818641304969788,0,0,0
-0.008511271327733994,-0.033384017646312714,-0.9092094302177429,0,0,0
-0.0073591433465480804,-0.030383730307221413,-0.9347466826438904,0,0,0
-0.005277123302221298,-0.02532169781625271,-0.9519131183624268,0,0,0
-0.003968521952629089,-0.024324560537934303,-0.9637847542762756,0,0,0
1.9799917936325073e-05,-0.02610395848751068,-0.9744682312011719,0,0,0
0.0046851783990859985,-0.027642512694001198,-0.9815808534622192,0,0,0
0.003889884799718857,-0.02811717800796032,-0.9861171841621399,0,0,0
0.00023987144231796265,-0.02955939620733261,-0.9908566474914551,0,0,0
0.0006346926093101501,-0.03336060047149658,-0.9970187544822693,0,0,0
0.0033974386751651764,-0.03515370190143585,-1.0058382749557495,0,0,0
0.010692168027162552,-0.032808855175971985,-1.0172454118728638,0,0,0
0.016991592943668365,-0.034459445625543594,-1.0208007097244263,0,0,0
0.019313476979732513,-0.036000195890665054,-1.0247104167938232,0,0,0
0.015748199075460434,-0.044037409126758575,-1.0271421670913696,0,0,0
0.012920372188091278,-0.04816148057579994,-1.0289406776428223,0,0,0
0.02214239165186882,-0.06830299645662308,-1.030333399772644,0,0,0
0.0358705148100853,-0.11387995630502701,-1.0319561958312988,0,0,0
0.04947543144226074,-0.15205425024032593,-1.0346977710723877,0,0,0
0.06446948647499084,-0.19043828547000885,-1.0386604070663452,0,0,0
0.08095162361860275,-0.23363955318927765,-1.0424216985702515,0,0,0
0.10220195353031158,-0.26990634202957153,-1.0469268560409546,0,0,0
0.12443244457244873,-0.2998751103878021,-1.0401357412338257,0,0,0
0.14296729862689972,-0.3220074474811554,-1.035544514656067,0,0,0
0.16072258353233337,-0.3363400995731354,-1.0348467826843262,0,0,0
0.18254008889198303,-0.341685950756073,-1.0327144861221313,0,0,0
0.20061713457107544,-0.34080687165260315,-1.0320732593536377,0,0,0
0.22627723217010498,-0.3369269073009491,-1.0287673473358154,0,0,0
0.2578628659248352,-0.3373837471008301,-1.0051875114440918,0,0,0
0.2873835563659668,-0.33566808700561523,-0.9710919260978699,0,0,0
0.31130534410476685,-0.32863110303878784,-0.9379587769508362,0,0,0
0.32696256041526794,-0.31918931007385254,-0.9057125449180603,0,0,0
0.33181583881378174,-0.30851683020591736,-0.8759608864784241,0,0,0
0.3331420123577118,-0.3055102229118347,-0.8496120572090149,0,0,0
0.33933138847351074,-0.30310747027397156,-0.8411200642585754,0,0,0
0.3467067778110504,-0.3097190260887146,-0.8376699090003967,0,0,0
0.3585999608039856,-0.4099990725517273,-0.8338214159011841,0,0,0
0.3669512867927551,-0.43838196992874146,-0.8385313153266907,0,0,0
0.3740009367465973,-0.4312675893306732,-0.8405751585960388,0,0,0
0.3842034339904785,-0.41561248898506165,-0.8378205299377441,0,0,0
0.3933052122592926,-0.3921958804130554,-0.8359121680259705,0,0,0
0.4013524055480957,-0.37153559923171997,-0.8366632461547852,0,0,0
0.40901514887809753,-0.36130180954933167,-0.8381991386413574,0,0,0
0.4110148549079895,-0.35445332527160645,-0.8403353691101074,0,0,0
0.41280412673950195,-0.3607253432273865,-0.8413923382759094,0,0,0
0.4287044405937195,-0.3975754678249359,-0.8401806950569153,0,0,0
0.445205956697464,-0.42492231726646423,-0.8399537205696106,0,0,0
0.45262211561203003,-0.42649075388908386,-0.8387287259101868,0,0,0
0.46604177355766296,-0.44639745354652405,-0.8394308090209961,0,0,0
0.4849722385406494,-0.4878605902194977,-0.8413882851600647,0,0,0
0.5180336833000183,-0.5037062168121338,-0.8443830013275146,0,0,0
0.5454249978065491,-0.4984986484050751,-0.8435158729553223,0,0,0
0.7593421936035156,-0.4818093180656433,-0.842034101486206,0,0,0
0.8149621486663818,-0.4771801829338074,-0.8456076383590698,0,0,0
1.06964111328125,-0.45315539836883545,-0.8498013019561768,0,0,0
1.1661312580108643,-0.4460126459598541,-0.8500878810882568,0,0,0
1.2884008884429932,-0.4431062340736389,-0.851040780544281,0,0,0
1.414584994316101,-0.4433165192604065,-0.8521953225135803,0,0,0
1.5462369918823242,-0.4460044801235199,-0.8513703346252441,0,0,0
1.676089882850647,-0.44625282287597656,-0.8498848676681519,0,0,0
1.8020083904266357,-0.4413009285926819,-0.8503565788269043,0,0,0
1.9294898509979248,-0.4404976963996887,-0.8495701551437378,0,0,0
2.0531656742095947,-0.4340950846672058,-0.8477265238761902,0,0,0
2.172062397003174,-0.42710769176483154,-0.8455072641372681,0,0,0
2.2969861030578613,-0.42244043946266174,-0.8458998203277588,0,0,0
2.3961997032165527,-0.4229694604873657,-0.8493923544883728,0,0,0
2.42220401763916,-0.4264358580112457,-0.849190354347229,0,0,0
2.4956088066101074,-0.42272940278053284,-0.851649284362793,0,0,0
2.5951039791107178,-0.4196419417858124,-0.8521133065223694,0,0,0
2.6339540481567383,-0.42244645953178406,-0.8485630750656128,0,0,0
2.631929397583008,-0.4228943884372711,-0.8467181324958801,0,0,0
2.6287572383880615,-0.4232923984527588,-0.8465621471405029,0,0,0
2.6268656253814697,-0.4206233024597168,-0.8469711542129517,0,0,0
2.6170454025268555,-0.41252148151397705,-0.8480291962623596,0,0,0
2.6061205863952637,-0.40619957447052,-0.8472015857696533,0,0,0
2.5995500087738037,-0.40459001064300537,-0.8467676043510437,0,0,0
2.589738607406616,-0.40224406123161316,-0.8571638464927673,0,0,0
2.5811076164245605,-0.4011576175689697,-0.8691608905792236,0,0,0
2.58198881149292,-0.3996124267578125,-0.8823155760765076,0,0,0
2.5872087478637695,-0.40044519305229187,-0.8931517601013184,0,0,0
2.5901987552642822,-0.39900070428848267,-0.8896920084953308,0,0,0
2.5897603034973145,-0.40295931696891785,-0.885524570941925,0,0,0
2.585960626602173,-0.4182145297527313,-0.8975326418876648,0,0,0
2.583958148956299,-0.421621173620224,-0.9108589887619019,0,0,0
2.5840744972229004,-0.42612341046333313,-0.9250437617301941,0,0,0
2.578920841217041,-0.43730443716049194,-0.9262039661407471,0,0,0
2.5762407779693604,-0.4372962415218353,-0.9264354109764099,0,0,0
2.5812745094299316,-0.43535512685775757,-0.9285179972648621,0,0,0
2.5875117778778076,-0.44530415534973145,-0.9296627044677734,0,0,0
2.5970284938812256,-0.5110076069831848,-0.9309253692626953,0,0,0
2.6077520847320557,-0.6261004209518433,-0.9299783706665039,0,0,0
2.619039297103882,-0.7267954349517822,-0.9292820692062378,0,0,0
2.6290719509124756,-0.823340892791748,-0.9273942708969116,0,0,0
2.643867015838623,-0.9118033647537231,-0.9246710538864136,0,0,0
2.6539418697357178,-0.984971284866333,-0.9199479222297668,0,0,0
2.6649622917175293,-1.060653567314148,-0.91834956407547,0,0,0
2.677222490310669,-1.1404024362564087,-0.9191226959228516,0,0,0
2.6869332790374756,-1.2057936191558838,-0.9207879304885864,0,0,0
2.6915035247802734,-1.2487778663635254,-0.9228160381317139,0,0,0
2.698812961578369,-1.2963234186172485,-0.9241144061088562,0,0,0
2.7068018913269043,-1.3450756072998047,-0.9236320853233337,0,0,0
2.7173664569854736,-1.355652928352356,-0.9232189655303955,0,0,0
2.7262463569641113,-1.339394211769104,-0.9236805438995361,0,0,0
2.7373335361480713,-1.3202109336853027,-0.92274409532547,0,0,0
2.785398244857788,-1.3057788610458374,-0.9224370121955872,0,0,0
2.849466562271118,-1.2813282012939453,-0.9218865036964417,0,0,0
2.9031119346618652,-1.2758055925369263,-0.927962064743042,0,0,0
2.9080593585968018,-1.28761625289917,-0.9268398284912109,0,0,0
2.8995707035064697,-1.2861753702163696,-0.9259529709815979,0,0,0
2.9382574558258057,-1.2782632112503052,-0.9267347455024719,0,0,0
3.0342609882354736,-1.2572708129882812,-0.9236707091331482,0,0,0
3.138829231262207,-1.245282530784607,-0.9247702360153198,0,0,0
3.168837547302246,-1.25396728515625,-0.9280287027359009,0,0,0
3.1553244590759277,-1.2482736110687256,-0.9264380931854248,0,0,0
3.1464908123016357,-1.2291278839111328,-0.9261310696601868,0,0,0
3.1571578979492188,-1.2142651081085205,-0.9234415292739868,0,0,0
3.19962739944458,-1.209985375404358,-0.9247851967811584,0,0,0
3.2135982513427734,-1.1988327503204346,-0.9264266490936279,0,0,0
3.2124316692352295,-1.1874408721923828,-0.9258460998535156,0,0,0
3.207763910293579,-1.1879377365112305,-0.9249463081359863,0,0,0
3.200700283050537,-1.2128268480300903,-0.9179691672325134,0,0,0
3.2031757831573486,-1.2195661067962646,-0.9221938848495483,0,0,0
3.215770721435547,-1.2128822803497314,-0.9282375574111938,0,0,0
3.2099523544311523,-1.2214272022247314,-0.9256017804145813,0,0,0
3.197976589202881,-1.2296596765518188,-0.9252275228500366,0,0,0
3.1958932876586914,-1.2340830564498901,-0.9229943156242371,0,0,0
3.192310094833374,-1.2264525890350342,-0.9214641451835632,0,0,0
3.1914191246032715,-1.2191870212554932,-0.9200379252433777,0,0,0
3.196887254714966,-1.2144293785095215,-0.9242367744445801,0,0,0
3.205510377883911,-1.2123000621795654,-0.925473690032959,0,0,0
3.2159061431884766,-1.2031667232513428,-0.9285202622413635,0,0,0
3.261559247970581,-1.1999876499176025,-0.9264979362487793,0,0,0
3.267267942428589,-1.2045992612838745,-0.9267764687538147,0,0,0
3.258517026901245,-1.1993334293365479,-0.924284040927887,0,0,0
3.2600252628326416,-1.186954140663147,-0.9219633936882019,0,0,0
3.257115125656128,-1.1899899244308472,-0.9252488613128662,0,0,0
3.2585835456848145,-1.1918668746948242,-0.9257695078849792,0,0,0
3.275164842605591,-1.1362204551696777,-0.9198541641235352,0,0,0
3.284507989883423,-1.0611388683319092,-0.9159185290336609,0,0,0
3.286344051361084,-0.990759015083313,-0.9223822951316833,0,0,0
3.284761905670166,-0.9552594423294067,-0.9238237142562866,0,0,0
3.288353443145752,-0.9427923560142517,-0.9232111573219299,0,0,0
3.291313648223877,-0.9230787754058838,-0.9257473945617676,0,0,0
3.302853584289551,-0.8799547553062439,-0.9318652749061584,0,0,0
3.314760684967041,-0.8437080979347229,-0.9336416125297546,0,0,0
3.3318662643432617,-0.8305827379226685,-0.9325722455978394,0,0,0
3.3427772521972656,-0.8169515132904053,-0.9304696321487427,0,0,0
3.3506555557250977,-0.7788421511650085,-0.9287192225456238,0,0,0
3.3529531955718994,-0.7252676486968994,-0.9252411127090454,0,0,0
3.3563101291656494,-0.660636842250824,-0.922190248966217,0,0,0
3.3632612228393555,-0.5876819491386414,-0.9228195548057556,0,0,0
3.3708417415618896,-0.5248407125473022,-0.9278430938720703,0,0,0
3.3825178146362305,-0.4883321523666382,-0.9317361116409302,0,0,0
3.388089895248413,-0.44103285670280457,-0.9293832778930664,0,0,0
3.3905978202819824,-0.3873591423034668,-0.9254787564277649,0,0,0
3.3932549953460693,-0.3523925244808197,-0.9212083220481873,0,0,0
3.3957765102386475,-0.3470422327518463,-0.9185865521430969,0,0,0
3.398571014404297,-0.3592469394207001,-0.9232905507087708,0,0,0
3.4063360691070557,-0.3442334234714508,-0.9257796406745911,0,0,0
3.410062074661255,-0.2711534798145294,-0.9226592779159546,0,0,0
3.415099620819092,-0.18720537424087524,-0.9227215051651001,0,0,0
3.4222073554992676,-0.11363647133111954,-0.923157811164856,0,0,0
3.423604965209961,-0.05239914357662201,-0.9236146211624146,0,0,0
3.421558141708374,0.006589027121663094,-0.9247873425483704,0,0,0
3.4216551780700684,0.06156552582979202,-0.9230189323425293,0,0,0
3.41502046585083,0.10130147635936737,-0.9238945245742798,0,0,0
3.413163423538208,0.13953015208244324,-0.9233283996582031,0,0,0
3.415973663330078,0.21168853342533112,-0.9230402112007141,0,0,0
3.411496162414551,0.27509939670562744,-0.9281792044639587,0,0,0
3.409151315689087,0.3422854542732239,-0.9287976026535034,0,0,0
3.410281181335449,0.39451852440834045,-0.9271025061607361,0,0,0
3.4121272563934326,0.4504745900630951,-0.928939700126648,0,0,0
3.415468692779541,0.5077551007270813,-0.9312819838523865,0,0,0
3.4225170612335205,0.568857729434967,-0.9301329851150513,0,0,0
3.4263463020324707,0.6152828931808472,-0.9279733896255493,0,0,0
3.433067560195923,0.6679653525352478,-0.9253092408180237,0,0,0
3.451036214828491,0.7280769944190979,-0.9263112545013428,0,0,0
3.4586374759674072,0.769890546798706,-0.9247164130210876,0,0,0
3.4610798358917236,0.7725098133087158,-0.9285701513290405,0,0,0
3.4468157291412354,0.7566728591918945,-0.926243782043457,0,0,0
3.447749137878418,0.7392667531967163,-0.9237920641899109,0,0,0
3.451242685317993,0.7248011231422424,-0.9231923222541809,0,0,0
3.4122345447540283,0.7230982184410095,-0.9239829182624817,0,0,0
3.3046205043792725,0.7174072265625,-0.9237839579582214,0,0,0
3.194995641708374,0.7139630317687988,-0.9209239482879639,0,0,0
3.088183879852295,0.7148178815841675,-0.9188865423202515,0,0,0
2.973839282989502,0.7114530801773071,-0.9196767210960388,0,0,0
2.844957113265991,0.7088779807090759,-0.9227929711341858,0,0,0
2.7121169567108154,0.7066283226013184,-0.924338698387146,0,0,0
2.583705425262451,0.7015579342842102,-0.9240911602973938,0,0,0
2.4537012577056885,0.7019451260566711,-0.9244152307510376,0,0,0
2.3264734745025635,0.6991796493530273,-0.925276517868042,0,0,0
2.18924617767334,0.7053537368774414,-0.9243230223655701,0,0,0
2.0554540157318115,0.706942617893219,-0.9220978021621704,0,0,0
1.9242682456970215,0.703624963760376,-0.9213652610778809,0,0,0
1.7850526571273804,0.6973438858985901,-0.9213009476661682,0,0,0
1.6396435499191284,0.6911238431930542,-0.9206094145774841,0,0,0
1.4846892356872559,0.684197187423706,-0.9215233325958252,0,0,0
1.3305153846740723,0.6778806447982788,-0.9228382110595703,0,0,0
1.182218074798584,0.6756155490875244,-0.9230107665061951,0,0,0
1.035555124282837,0.6797239780426025,-0.923290491104126,0,0,0
0.8905865550041199,0.683961808681488,-0.9229923486709595,0,0,0
0.7531858682632446,0.6798507571220398,-0.9238102436065674,0,0,0
0.6261510252952576,0.671583890914917,-0.9234591126441956,0,0,0
0.4972389042377472,0.6642980575561523,-0.9225646257400513,0,0,0
0.3759874403476715,0.6590552926063538,-0.9225760698318481,0,0,0
0.26238203048706055,0.6576732993125916,-0.9243142008781433,0,0,0
0.14572103321552277,0.6651691794395447,-0.9257029294967651,0,0,0
0.02992613986134529,0.6728581786155701,-0.9250372648239136,0,0,0
-0.08437389880418777,0.6777158975601196,-0.9268967509269714,0,0,0
-0.18484890460968018,0.6836928725242615,-0.9286862015724182,0,0,0
-0.1997402459383011,0.6754523515701294,-0.9277018308639526,0,0,0
-0.17596399784088135,0.6841703653335571,-0.9293431639671326,0,0,0
-0.1487869918346405,0.6999093890190125,-0.9299801588058472,0,0,0
-0.12651777267456055,0.7029796838760376,-0.9327027797698975,0,0,0
-0.10957401990890503,0.6392782926559448,-0.9346454739570618,0,0,0
-0.1029943972826004,0.5312443375587463,-0.9325889348983765,0,0,0
-0.0988837406039238,0.4297143816947937,-0.9289951920509338,0,0,0
-0.08838889747858047,0.34444552659988403,-0.9263877272605896,0,0,0
-0.07086173444986343,0.2642635107040405,-0.9241201877593994,0,0,0
-0.05620705336332321,0.1924232393503189,-0.920391857624054,0,0,0
-0.04228091984987259,0.11813373863697052,-0.9202553629875183,0,0,0
-0.02757243998348713,0.054045408964157104,-0.9207964539527893,0,0,0
-0.013785041868686676,0.04025890305638313,-0.9217188954353333,0,0,0
-0.006287418305873871,0.047936227172613144,-0.9246683716773987,0,0,0
-0.005716059356927872,0.0536186546087265,-0.926490306854248,0,0,0
-0.007707525044679642,0.056375257670879364,-0.9258919954299927,0,0,0
-0.010014716535806656,0.05380089953541756,-0.9245586395263672,0,0,0
-0.01564570516347885,0.05888722836971283,-0.9087381362915039,0,0,0
-0.0246836319565773,0.060570672154426575,-0.8708959817886353,0,0,0
-0.02867593802511692,0.06050965562462807,-0.8296303749084473,0,0,0
-0.029725302010774612,0.05648530274629593,-0.7887514233589172,0,0,0
-0.02365932986140251,0.05321349948644638,-0.7450658679008484,0,0,0
-0.013470791280269623,0.04784660041332245,-0.6957406997680664,0,0,0
-0.006701059639453888,0.04119504615664482,-0.6443451046943665,0,0,0
-0.004027873277664185,0.04863369092345238,-0.5918951034545898,0,0,0
-0.0031921081244945526,0.05926936864852905,-0.537178635597229,0,0,0
-0.00738660991191864,0.06722363084554672,-0.48574769496917725,0,0,0
-0.011474810540676117,0.07434647530317307,-0.4352504014968872,0,0,0
-0.01048097014427185,0.07866328954696655,-0.4019719362258911,0,0,0
-0.008467048406600952,0.08673439174890518,-0.37901902198791504,0,0,0
-0.011171560734510422,0.09082265198230743,-0.3555772006511688,0,0,0
-0.014809917658567429,0.0940057709813118,-0.3324058949947357,0,0,0
-0.01611342281103134,0.09450865536928177,-0.31109631061553955,0,0,0
-0.018654245883226395,0.09597219526767731,-0.2894737422466278,0,0,0
-0.048255130648612976,0.0973525196313858,-0.26925045251846313,0,0,0
-0.05755168944597244,0.0981931984424591,-0.24872641265392303,0,0,0
-0.06139644607901573,0.10144664347171783,-0.22855502367019653,0,0,0
-0.08466836810112,0.10064224898815155,-0.2095305621623993,0,0,0
-0.10668794810771942,0.0951862558722496,-0.19047413766384125,0,0,0
-0.11478549242019653,0.08639656007289886,-0.17017289996147156,0,0,0
-0.11716237664222717,0.08608774840831757,-0.1492452472448349,0,0,0
-0.1133318692445755,0.08628250658512115,-0.12900042533874512,0,0,0
-0.11072994768619537,0.07887248694896698,-0.109949991106987,0,0,0
-0.12223581224679947,0.06092178076505661,-0.09345194697380066,0,0,0
-0.1711273491382599,0.045856375247240067,-0.08057079464197159,0,0,0
-0.24417546391487122,0.03582763671875,-0.0637214332818985,0,0,0
-0.3044161796569824,0.029112307354807854,-0.02309638448059559,0,0,0
-0.31219857931137085,0.032936692237854004,0.008636604063212872,0,0,0
-0.30696436762809753,0.03214874863624573,0.010711382143199444,0,0,0
-0.2750972807407379,0.032298460602760315,0.0023025348782539368,0,0,0
-0.25366491079330444,0.03879508376121521,0.019614337012171745,0,0,0
-0.2420177459716797,0.03864505887031555,0.0177240539342165,0,0,0
-0.23579396307468414,0.03950559347867966,0.0191033985465765,0,0,0
-0.22274631261825562,0.04042225331068039,0.00559125654399395,0,0,0
-0.21854925155639648,0.042611222714185715,0.006685672327876091,0,0,0
-0.21314707398414612,0.0435139536857605,0.0009523406624794006,0,0,0
-0.20703864097595215,0.04562976211309433,-0.004548601806163788,0,0,0
-0.2023918330669403,0.04875502735376358,0.0024626310914754868,0,0,0
-0.20476199686527252,0.04783129692077637,0.007126612588763237,0,0,0
-0.21103623509407043,0.047440409660339355,0.00423344224691391,0,0,0
-0.20258471369743347,0.04683926701545715,-0.0028008781373500824,0,0,0
-0.1669711023569107,0.04737788811326027,0.0005751531571149826,0,0,0
-0.11394781619310379,0.044483017176389694,0.027760770171880722,0,0,0
-0.11900611966848373,0.04284011572599411,0.0296932440251112,0,0,0
-0.12190240621566772,0.03902623802423477,0.03144493326544762,0,0,0
-0.11696147918701172,0.03708627447485924,0.030630912631750107,0,0,0
-0.11238303035497665,0.03639282286167145,0.031057434156537056,0,0,0
-0.10959586501121521,0.03487638384103775,0.030762916430830956,0,0,0
-0.10895702242851257,0.034296270459890366,0.03054526261985302,0,0,0
-0.11047706007957458,0.03560981899499893,0.029848281294107437,0,0,0
-0.11295761168003082,0.03759540244936943,0.02902953140437603,0,0,0
-0.11521116644144058,0.03940814733505249,0.028600063174962997,0,0,0
-0.11706044524908066,0.04087711125612259,0.02834225632250309,0,0,0
-0.11841008067131042,0.04200361296534538,0.028071176260709763,0,0,0
-0.11942030489444733,0.04287002235651016,0.02783002331852913,0,0,0
-0.11947430670261383,0.04340258985757828,0.02777128852903843,0,0,0
-0.11908110976219177,0.04405602812767029,0.027581417933106422,0,0,0
-0.11846849322319031,0.04437892884016037,0.027573291212320328,0,0,0
-0.11782165616750717,0.044651422649621964,0.027454374358057976,0,0,0
-0.11721405386924744,0.045449599623680115,0.02690507471561432,0,0,0
-0.1167876124382019,0.045870427042245865,0.02654527872800827,0,0,0
-0.11594288796186447,0.04559829831123352,0.026588883250951767,0,0,0
-0.11475291848182678,0.045548323541879654,0.026510952040553093,0,0,0
-0.11365538090467453,0.04548279941082001,0.026438603177666664,0,0,0
-0.11320848762989044,0.04578399285674095,0.026312265545129776,0,0,0
-0.11295480281114578,0.04618129879236221,0.026226865127682686,0,0,0
-0.11267437040805817,0.04679778963327408,0.026175785809755325,0,0,0
-0.11234411597251892,0.04704919457435608,0.026453208178281784,0,0,0
-0.11206914484500885,0.04729398339986801,0.02661268226802349,0,0,0
-0.11165265738964081,0.04736723750829697,0.026543430984020233,0,0,0
-0.11111730337142944,0.04763415828347206,0.026270613074302673,0,0,0
-0.11090755462646484,0.04775507375597954,0.02612759917974472,0,0,0
-0.11085256934165955,0.04788712039589882,0.026206564158201218,0,0,0
-0.11073106527328491,0.04812771454453468,0.026299849152565002,0,0,0
-0.11059983819723129,0.04859548807144165,0.02628292888402939,0,0,0
-0.10990652441978455,0.049008771777153015,0.026617199182510376,0,0,0
-0.10936886072158813,0.04881231486797333,0.026847874745726585,0,0,0
-0.10915033519268036,0.049220748245716095,0.026676464825868607,0,0,0
-0.10911399126052856,0.04978816583752632,0.026483887806534767,0,0,0
-0.10872910916805267,0.049472760409116745,0.02696465328335762,0,0,0
-0.1084967851638794,0.04911252483725548,0.027271609753370285,0,0,0
-0.10828688740730286,0.049215320497751236,0.027197793126106262,0,0,0
-0.10807326436042786,0.04955463483929634,0.027011439204216003,0,0,0
-0.10793878138065338,0.050032828003168106,0.026823045685887337,0,0,0
-0.10779762268066406,0.05038841813802719,0.026709258556365967,0,0,0
-0.10779012739658356,0.05073286592960358,0.026615146547555923,0,0,0
-0.10763368755578995,0.050766102969646454,0.02676207572221756,0,0,0
-0.10745272040367126,0.05064503848552704,0.02694404311478138,0,0,0
-0.10722961276769638,0.050768908113241196,0.027007605880498886,0,0,0
-0.10709314048290253,0.0510035902261734,0.0270828939974308,0,0,0
-0.10705193877220154,0.05147014558315277,0.026969602331519127,0,0,0
-0.10691621899604797,0.0517953597009182,0.026872210204601288,0,0,0
-0.10670086741447449,0.051839813590049744,0.026991140097379684,0,0,0
-0.1066044270992279,0.05198685824871063,0.026965761557221413,0,0,0
-0.10652928054332733,0.05217926204204559,0.026821283623576164,0,0,0
-0.1064065545797348,0.05212347209453583,0.026846343651413918,0,0,0
-0.10647130757570267,0.05201040208339691,0.026881050318479538,0,0,0
-0.10635635256767273,0.05183504521846771,0.026850424706935883,0,0,0
-0.10627585649490356,0.05177009105682373,0.026864297688007355,0,0,0
-0.10621239244937897,0.051761116832494736,0.02678774483501911,0,0,0
-0.1060464158654213,0.05166306719183922,0.026718461886048317,0,0,0
-0.10577046871185303,0.05140366777777672,0.026646878570318222,0,0,0
-0.1055932492017746,0.05121057480573654,0.026653850451111794,0,0,0
-0.10542314499616623,0.051325857639312744,0.026519324630498886,0,0,0
-0.10530529916286469,0.05142848566174507,0.02641117013990879,0,0,0
-0.10524812340736389,0.05145782232284546,0.02658093348145485,0,0,0
-0.10534559190273285,0.05153106898069382,0.026661129668354988,0,0,0
-0.10541647672653198,0.0517798587679863,0.026667842641472816,0,0,0
-0.10534645617008209,0.05192723870277405,0.026581913232803345,0,0,0
-0.10523490607738495,0.052032604813575745,0.02641245909035206,0,0,0
-0.10499387979507446,0.0518328920006752,0.02648806758224964,0,0,0
-0.1045055091381073,0.05147165432572365,0.02679416351020336,0,0,0
-0.10169471800327301,0.04860667139291763,0.027206281200051308,0,0,0
-0.09678655862808228,0.04766588658094406,0.021747732535004616,0,0,0
-0.07896899431943893,0.043423451483249664,-0.030747244134545326,0,0,0
-0.07661210000514984,0.04771296679973602,-0.08806180953979492,0,0,0
-0.09040774405002594,0.05186453461647034,-0.1323416382074356,0,0,0
-0.09187094867229462,0.06059878319501877,-0.13129864633083344,0,0,0
