0.7315322756767273,0.023903731256723404,-1.00399363,0.006823495,-0.026917135,-0.983661175
0.7231349945068359,0.037814304,-1.004440546,0.011914659291505814,-0.014476403,-0.986092091
0.7090867161750793,0.034506022930145264,-1.007088304,0.016137171536684036,-0.008551512,-0.987871408
0.7042705416679382,0.021071694791316986,-1.001444221,0.026636704802513123,-0.00202593,-0.989210367
0.704595685,0.022089414298534393,-0.997755766,0.03744987,0.00328158,-0.987435579
0.6938419938087463,0.032820251,-0.999228835,0.041047107,0.004583307,-0.985664487
0.6927818655967712,0.040670670568943024,-1.001431346,0.037460182,0.002490161,-0.984978497
0.6946384310722351,0.049306907,-1.002243161,0.031827159225940704,-0.007077562,-0.985588372
0.6930902600288391,0.0593911,-0.998928726,0.026916284,-0.018522572,-0.986317337
0.6964218020439148,0.061051905155181885,-0.99929595,0.022522758692502975,-0.023449833,-0.987620056
0.7149478793144226,0.06198442,-1.003035903,0.018156823,-0.027956249,-0.989074767
0.7231258153915405,0.046235255897045135,-0.998005629,0.014850255101919174,-0.030984929,-0.988378644
0.7196834683418274,0.023926954716444016,-0.998282313,0.014453347772359848,-0.028943671,-0.988018036
0.7139090299606323,0.031725917011499405,-0.999985158,0.016013715,-0.022746576,-0.988184929
0.7090513706207275,0.024637360125780106,-0.999576509,0.019745722,-0.017334169,-0.988292754
0.7107563614845276,0.023882940411567688,-1.003774285,0.020126682,-0.018343877,-0.987644553
0.7085953950881958,0.029139846563339233,-1.00871563,0.017715845,-0.016072303,-0.985726893
0.7126100063323975,0.017164566,-1.010276794,0.016364902,-0.006181968,-0.984467149
0.714527965,-0.0001522,-1.010366559,0.013658996671438217,-0.001558691,-0.984044373
0.7162570357322693,0.003539372,-1.005086422,0.007188678,-0.003723783,-0.986032426
0.7180588245391846,0.017384059727191925,-1.002764583,0.005929023,-0.015904948,-0.990848482
0.7108298540115356,0.028792635,-1.00718677,0.009536725,-0.024406739,-0.994676352
0.7213500738143921,0.007477216,-1.005705476,0.010183203965425491,-0.025647491,-0.996124208
0.7235888838768005,-0.003604781,-1.00175941,0.009638794,-0.026300468,-0.994299889
0.7223150730133057,0.002335757,-0.998197019,0.014072772115468979,-0.031989925,-0.995069087
0.72990191,-0.011040105,-0.995438337,0.012524906545877457,-0.022146199,-0.995522976
0.7254507541656494,-0.012412788,-0.99737221,0.014106560498476028,-0.018577565,-0.994167387
0.7102105021476746,0.015608523041009903,-1.000749826,0.016634076833724976,-0.015256459,-0.991106212
0.6994679570198059,0.033885632,-1.000319481,0.016742832958698273,-0.018005107,-0.988766551
0.685433567,0.038886152,-0.996307373,0.024484634399414062,-0.034273494,-0.989733279
0.688625157,0.052016344,-0.995791018,0.030907578766345978,-0.040019087,-0.990607023
0.7084176540374756,0.051127777,-0.996921659,0.029636412858963013,-0.03046892,-0.991521537
0.7161963582038879,0.045112110674381256,-1.002242327,0.019634708762168884,-0.023587193,-0.991230667
0.7096340656280518,0.039633259,-1.003664136,0.014767138287425041,-0.013760826,-0.993189037
0.7098572254180908,0.037295207381248474,-1.001574874,0.012296689674258232,0.001896895,-0.993539572
0.7254198789596558,0.029530510306358337,-1.002679348,0.011255539953708649,0.010347191244363785,-0.992167115
0.7990865707397461,0.023861747235059738,-1.001039505,0.014046842232346535,0.006492067,-0.990133822
0.8668072819709778,0.028432253748178482,-1.001565337,0.018570213,-0.002147205,-0.991875768
0.9105167984962463,0.034016136,-1.000480175,0.022485159,0.001053717,-0.989325047
0.9382724165916443,0.031145930290222168,-0.999479711,0.02130745,0.011531881988048553,-0.987199008
0.9542514085769653,0.023514270782470703,-0.997526109,0.01608463,0.004902687,-0.985380173
0.9570615887641907,2.4052336812019348e-05,-0.988790631,0.013721756637096405,-0.012018243,-0.987226069
0.9597781896591187,-0.002039749,-0.993341804,0.007239927,-0.004718387,-0.987950623
0.9639029502868652,0.009707307,-0.994763792,-0.001534022,0.003329052,-0.988942325
0.9647514224052429,0.016313829,-0.997054756,-0.002645217,0.00356032,-0.988608003
0.9765830636024475,0.003041066,-1.001334786,-0.003691602,0.006247772,-0.986385107
0.9831432104110718,-0.033130411,-0.99507165,-0.005742487,0.011907143518328667,-0.985936344
0.9832080602645874,-0.04919447,-0.992311597,-0.007080007,0.020866781,-0.985178173
0.9840771555900574,-0.054179616,-1.000526786,0.000173736,0.014262102544307709,-0.987725317
0.9840933680534363,-0.046677705,-1.007990003,0.00528283,0.000533,-0.995069027
0.9770665764808655,-0.030473281,-1.010941148,0.0016184,-0.001694068,-1.003259778
0.9651616811752319,-0.017564688,-1.009447575,-0.004952343,-0.001323618,-1.007156134
0.9684369564056396,-0.016406681,-1.012557864,-0.008408735,0.001807004,-1.009662032
0.9746838808059692,-0.035192631,-1.005553007,-0.001718376,0.004832312,-1.005671263
0.9696874618530273,-0.053284138,-1.003107548,0.000559606,0.012867738,-1.003134847
0.975587785,-0.038155004,-1.003387809,0.016261190176010132,0.013202369213104248,-0.999748886
0.98046875,-0.013885289,-1.000895381,0.019072972238063812,0.005010851,-0.995075583
1.0397474765777588,0.005508859,-1.00206852,0.024802125990390778,-1.31E-05,-0.99289608
1.1896144151687622,0.008009039,-0.991189241,0.016568142920732498,0.011033013463020325,-0.992756665
1.3086514472961426,0.006884342,-0.994312942,0.003648445,0.025124542,-0.991789997
1.3898683786392212,-0.011258789,-0.99706167,0.000590537,0.027515415102243423,-0.992591083
1.4314095973968506,-0.03585504,-0.996541381,-0.007047685,0.026018373668193817,-0.994806767
1.4557827711105347,-0.055981152,-0.998214304,-0.013321412,0.018452733755111694,-0.998685122
1.4670051336288452,-0.067431517,-0.995736659,-0.02608544,0.014382272958755493,-1.005496025
1.4763652086257935,-0.060754538,-1.001054525,-0.039298829,0.017531931400299072,-1.010082841
1.4962308406829834,-0.048786748,-1.002569556,-0.04211127,0.020092528,-1.010211587
1.5026781558990479,-0.044657484,-0.997198761,-0.034887254,0.020691797137260437,-1.007139325
1.4935238361358643,-0.051866494,-0.995286703,-0.023455366,0.019814242,-1.001321077
1.4906476736068726,-0.04713567,-0.993200898,-0.009901613,0.01932494,-0.996296167
1.4864692687988281,-0.043843891,-0.997538388,-0.000364138,0.024426143616437912,-0.994396985
1.4905635118484497,-0.03183274,-1.000292897,0.002647437,0.024107698,-0.997065306
1.5064361095428467,-0.013156196,-0.99771136,-0.008082015,0.025746535509824753,-1.000017166
1.513414740562439,-0.006604053,-0.995001554,-0.022371296,0.023032791912555695,-1.001398444
1.5031331777572632,-0.020993896,-0.996585011,-0.030580664,0.007139685,-0.998349905
1.4813920259475708,-0.04027278,-1.001105189,-0.02281874,-0.013063285,-1.000218153
1.4690330028533936,-0.04828345,-0.99881047,-0.014474522,-0.024485022,-1.001460671
1.4713871479034424,-0.040444218,-0.992919445,-0.006028578,-0.035783011,-0.9987939
1.477613091468811,-0.039328258,-0.994294286,0.003136765,-0.037971601,-0.999724388
1.4659315347671509,-0.053631563,-1.00131321,0.011625178158283234,-0.037730813,-1.000441909
1.4545912742614746,-0.068078578,-1.000866055,0.012871570885181427,-0.027068101,-1.000761628
1.4532994031906128,-0.073744968,-0.998509288,0.008619059,-0.00884621,-0.999572337
1.4577991962432861,-0.071908928,-0.994558811,0.005097739,0.00274916,-0.999494791
1.4719018936157227,-0.070288032,-1.006399751,0.008578531,0.004391272,-0.99689728
1.4770944118499756,-0.060184367,-1.010308743,0.009277519,0.005568799,-0.996597409
1.46952486,-0.052452825,-1.013344765,0.010036991909146309,0.004685704,-0.995658815
1.4619014263153076,-0.050741877,-1.011094928,0.005081913,0.012458824,-0.993951678
1.4515740871429443,-0.057296567,-1.008119464,0.000554321,0.007585708,-0.994155228
1.4520713090896606,-0.058345348,-1.000784874,0.004653698,-0.011065785,-1.000363111
1.4561063051223755,-0.061870154,-1.000504971,-0.003072375,-0.008804446,-1.003433704
1.4577898979187012,-0.06828399,-1.002834916,-0.003720554,-0.003841303,-1.004441381
1.4700312614440918,-0.064352922,-1.006301165,-0.000449054,-0.007096948,-1.005810499
1.484605073928833,-0.057015084,-1.005235672,0.00257954,-0.014462993,-1.003261924
1.4894771575927734,-0.059613649,-0.999351799,-0.004637491,-0.016800508,-1.003169894
1.4717382192611694,-0.070745736,-0.994935691,-0.014677595,-0.015132032,-1.003111839
1.463723063468933,-0.071168616,-0.997045696,-0.01027135,-0.0175093,-1.001964211
1.4705108404159546,-0.073839992,-0.99769789,-0.004727663,-0.010488182,-1.00395
1.4861552715301514,-0.065819882,-0.997973919,-0.003828382,0.000519689,-1.000095725
1.496617078781128,-0.05737666,-1.001379609,-0.001057919,0.000582904,-0.99487555
1.5003377199172974,-0.054346137,-1.00567162,0.006822329,-0.01072148,-0.999566436
1.4931977987289429,-0.045982786,-1.006339073,0.013467714190483093,-0.014908075,-1.000897884
1.4832707643508911,-0.02873056,-0.994200528,0.012522016,-0.017219875,-1.000559807
1.4719568490982056,-0.009451763,-0.990571499,0.015919551253318787,-0.021456884,-1.002011538
1.4829095602035522,0.006118771,-0.993729115,0.015816960483789444,-0.025874723,-1.002400041
1.4926085472106934,-0.001746379,-0.999112189,0.011414922773838043,-0.022414155,-1.004162073
1.4950759410858154,-0.018414032,-1.003245234,0.011682495474815369,-0.019337002,-1.002203703
1.4831970930099487,-0.029700086,-1.005318403,0.017943684,-0.030375324,-0.9982391
1.467254877090454,-0.028108155,-1.001054883,0.017852995544672012,-0.034374874,-0.995899677
1.4772601127624512,-0.02047547,-0.999182045,0.010145843029022217,-0.026045287,-0.996274471
1.4910649061203003,-0.019712297,-1.004844189,0.010250631719827652,-0.024111707,-0.99539578
1.4848828315734863,-0.020534115,-1.005447865,0.012167423963546753,-0.023847932,-0.993399382
1.4677765369415283,-0.018495584,-1.010352254,0.013683192431926727,-0.030167667,-0.991373599
1.466794729232788,-0.029300723,-1.011726022,0.01404167,-0.028411651,-0.99330008
1.4736653566360474,-0.036849558,-1.004707813,0.00662744,-0.021017455,-0.993247211
1.4806872606277466,-0.025701778,-1.00371635,-0.001516044,-0.014502045,-0.996293783
1.4969414472579956,-0.013155885,-0.998147488,-0.00302434,-0.003905453,-1.000508785
1.500673770904541,-0.011204119,-1.001215935,0.000327963,-0.00199637,-1.00355041
1.4885289669036865,-0.019234631,-1.001929164,0.003925465,-0.004575871,-1.003146648
1.477841854095459,-0.031646963,-0.997451365,0.007397756,-0.008580652,-1.00190413
1.4574090242385864,-0.044156097,-0.998402596,0.004682209,-0.006716489,-1.000322104
1.4433878660202026,-0.03834603,-1.003716707,0.000880014,-0.00291674,-1.000306368
1.4560801982879639,-0.026406204,-1.006145358,0.000357173,-0.0109692,-1.000801444
1.4743784666061401,-0.011398398,-1.004343033,0.002357174,-0.017018693,-1.001668572
1.4783390760421753,-0.00766892,-1.000664473,-0.000726413,-0.026834877,-1.002529979
1.4587491750717163,-0.019292191,-0.998710692,-0.003416136,-0.033784952,-1.00287962
1.4428132772445679,-0.024983212,-0.999872923,-0.002221912,-0.031125847,-1.001512051
1.4508026838302612,-0.023697322,-0.998069584,0.001774196,-0.02529021,-1.001006126
1.4633445739746094,-0.018684084,-0.997638702,0.003665943,-0.019880794,-0.998819768
1.4735329151153564,-0.022359896,-0.993249774,0.001575999,-0.019996936,-0.999703348
1.4781379699707031,-0.020329533,-0.989450812,-0.004162461,-0.019529728,-1.002661109
1.4842989444732666,-0.01128379,-0.982738614,-0.004748624,-0.01560811,-1.002880692
1.4729480743408203,-0.013492286,-0.990974188,-0.001802504,-0.019007601,-1.000027776
1.4633070230484009,-0.030379383,-1.002550006,0.005030055,-0.018480791,-0.998845339
1.5690104961395264,-0.033186298,-0.993958831,0.005557407,-0.015471338,-0.998426497
1.7061982154846191,-0.043337021,-0.992185056,-0.001865309,-0.013723637,-0.998137414
1.8109548091888428,-0.050011247,-0.988608778,-0.012305047,-0.014306393,-0.999034166
1.8817400932312012,-0.042288892,-0.987373114,-0.02432326,-0.010857005,-1.002727628
1.9252125024795532,-0.044945635,-0.99426347,-0.032282636,-0.006766384,-1.00597024
1.9410433769226074,-0.04126041,-0.999247134,-0.030741248,-0.011875967,-1.002410769
1.9483022689819336,-0.047018789,-1.00059104,-0.019708883,-0.019300118,-1.000110388
1.9612994194030762,-0.048394874,-1.001373172,-0.012440603,-0.003812455,-0.998205364
1.9727544784545898,-0.044435248,-0.999118745,-0.005196378,0.007254776,-0.998400033
1.9805046319961548,-0.036145449,-0.998991013,-0.002487797,0.012258350849151611,-0.999105155
1.9804282188415527,-0.029657254,-1.001439333,-0.004827,0.007476607,-0.999017835
1.981508493423462,-0.020091007,-1.001032352,-0.008979989,0.00119688,-0.998262107
1.979233980178833,-0.020988477,-0.994833052,-0.013329562,0.002812868,-0.995741904
1.9836801290512085,-0.016904369,-0.989768028,-0.013218226,0.014308860525488853,-0.99462527
1.9872511625289917,-0.020717829,-0.98468399,-0.011958249,0.02278842,-0.997304082
1.971680760383606,-0.026269672,-0.987097621,-0.010664454,0.017350783571600914,-1.000990748
1.953156829,-0.031995524,-0.992482066,-0.006658036,0.010621413588523865,-1.004235864
1.9487597942352295,-0.033812806,-0.989369273,-0.002960812,0.002722101,-1.00541091
1.9441558122634888,-0.026911579,-0.990380049,-0.000973534,-0.005660523,-1.00317812
1.9195531606674194,-0.041191798,-1.00158596,-0.005608503,-0.014546602,-1.000768781
1.914337158203125,-0.048352897,-1.003623486,-0.006356597,-0.017057342,-0.998220861
1.938619613647461,-0.035920985,-1.008436322,-0.005008366,-0.006039657,-0.996181667
1.9687321186065674,-0.01968647,-1.008992434,-0.00244876,0.005565971,-0.996080637
1.976834774017334,-0.008109074,-1.005603909,-0.000686761,0.016433972865343094,-0.9955495
1.9834200143814087,-0.001167637,-1.007061243,0.001621425,0.014824975281953812,-0.997729838
2.0827300548553467,0.005188464,-0.997142255,0.011185151,0.007274035,-0.999993861
2.2378742694854736,0.014175009913742542,-0.99641037,0.011275582015514374,0.005994972,-1.000895858
2.343487263,0.007644735,-0.999545157,0.013476245105266571,0.00249381,-1.000694394
2.3993921279907227,-0.008603966,-1.000792742,0.012893181294202805,-0.003104443,-0.99856019
2.429598808288574,-0.016559733,-1.000088215,0.013561815023422241,-0.015851868,-0.998316109
2.442345380783081,-0.020033408,-0.997338295,0.011934429407119751,-0.019117126,-1.000362992
2.4518039226531982,-0.020471163,-0.999858558,0.005854551,-0.012134856,-1.000174999
2.455984592437744,-0.018772203,-1.00389576,-0.00014025,-0.002774451,-1.00006187
2.4543280601501465,-0.007732933,-1.003939033,-0.004042909,0.00254561,-1.000880241
2.456001043319702,0.011365383863449097,-1.004189134,-0.001438219,-0.00468727,-1.001394629
2.466841459274292,0.024365693,-1.003399014,0.005862486,-0.01319816,-0.998729348
2.4727704524993896,0.017735954374074936,-1.003500581,0.00510383,-0.019721214,-0.994901717
2.4727776050567627,-0.003837479,-0.999756873,0.007286403,-0.023879832,-0.990304112
2.4644200801849365,-0.018353786,-0.999200583,0.011198103427886963,-0.021922626,-0.990751803
2.472136974334717,-0.014007104,-1.00144136,0.009227537,-0.016063135,-0.994778156
2.4750640392303467,-0.004333705,-1.003008604,0.005661845,-0.007934788,-0.999285877
2.468207836151123,-0.007104306,-1.003216982,0.004310075,0.000164675,-1.00361526
2.4538118839263916,-0.022064583,-1.001123309,0.002120782,0.003856357,-1.006552339
2.443859338760376,-0.031444438,-0.997971416,0.001424182,-0.000809593,-1.005305171
2.4401447772979736,-0.038557082,-1.002205372,0.001676925,-0.005760301,-1.004328609
2.4380440711975098,-0.043028902,-1.007051229,-0.002545748,-0.003659998,-1.00307703
2.4334909915924072,-0.055983711,-1.003620982,-0.006135028,-0.00182463,-1.002672315
2.438223123550415,-0.06121821,-1.001717448,-0.007194307,-0.000240474,-1.004202247
2.447598695755005,-0.055990394,-1.000676513,-0.003637567,0.002347143,-1.004142761
2.447917938232422,-0.051094301,-0.997039557,0.001556352,-0.002368075,-1.003084421
2.4461987018585205,-0.049235102,-0.997612,0.006346986,-0.007056196,-1.003000379
2.4449374675750732,-0.050178356,-0.998936951,0.007048652,-0.011750307,-1.002262473
2.445300579071045,-0.049875468,-1.002863526,0.007528812,-0.01664895,-1.000897527
2.446688413619995,-0.04331224,-1.002171516,0.008742359,-0.020993356,-0.999000549
2.437535047531128,-0.038218468,-1.000442624,0.005627982,-0.024871115,-1.000526309
2.4341721534729004,-0.035187311,-0.998617709,0.005232614,-0.018856915,-1.000339746
2.441434383392334,-0.038546346,-1.0005759,0.009438459,-0.012006979,-0.999868333
2.452820062637329,-0.045313135,-0.999974966,0.012553345412015915,-0.011439866,-0.99888289
2.4552183151245117,-0.052232109,-1.00189352,0.010824248194694519,-0.014595494,-0.999877155
2.4614615440368652,-0.041971624,-0.998128176,0.006889019,-0.012571285,-0.99992156
2.4554691314697266,-0.038563497,-0.99881959,0.004407778,-0.01203845,-0.999306858
2.4583494663238525,-0.042203069,-1.002245665,-0.000122525,-0.0110522,-1.001538992
2.5227839946746826,-0.045004372,-0.997908056,-0.005019758,-0.010622881,-1.004044771
2.5860888957977295,-0.057476424,-0.997959554,-0.010203991,-0.015956108,-1.003321528
2.6251394748687744,-0.058225613,-0.999735177,-0.013121728,-0.022079181,-1.00276792
2.652390718460083,-0.045482554,-0.997730792,-0.016437143,-0.026207024,-1.000342131
2.681100368499756,-0.025643041,-0.996460974,-0.022002924,-0.026713943,-1.000998497
2.6930909156799316,-0.014402876,-1.00123179,-0.024206296,-0.022037806,-1.000141263
2.696206808,-0.015783686,-1.003970504,-0.022644199,-0.022821078,-0.996391118
2.7032625675201416,-0.013117812,-1.002180576,-0.015297871,-0.02144096,-0.994849563
2.698718786239624,-0.019814992,-1.000409365,-0.007694203,-0.009925388,-0.994660676
2.7012269496917725,-0.016943742,-1.00278008,-0.007771797,-0.001553176,-0.997000396
2.708728551864624,-0.011206256,-1.003001094,-0.009082064,0.001076994,-0.998281717
2.7091665267944336,-0.012577486,-1.002765059,-0.010502998,0.00017895,-0.99853766
2.709974527359009,-0.016041135,-1.001743078,-0.011342887,-0.002521368,-0.999733031
2.7039616107940674,-0.018016459,-0.997067451,-0.013985671,-0.003436991,-1.00021565
2.6974234580993652,-0.022695083,-0.989111304,-0.016065169,-0.00199514,-1.000617504
2.6922895908355713,-0.019213201,-0.987373471,-0.014347129,-0.00071065,-1.000771165
2.6877527236938477,-0.017792149,-0.990333557,-0.008076709,0.000747877,-1.000542283
2.689073324203491,-0.012137852,-0.989326358,0.000379521,-0.000472135,-0.99969393
2.6977310180664062,-0.001910537,-0.993409693,0.007292807,-0.005136854,-0.999137938
2.7063889503479004,-0.00309337,-0.997133672,0.012165680527687073,-0.008958053,-0.998839498
2.7087507247924805,-0.014117242,-0.999348402,0.008438911,-0.012611836,-0.996768355
2.7093470096588135,-0.018375697,-1.001346707,-0.005736962,-0.017747074,-0.996918201
2.7151126861572266,-0.018943081,-1.006376624,-0.019425426,-0.021370953,-0.998617828
2.7080767154693604,-0.027762182,-1.006226301,-0.028155893,-0.022110749,-0.999798834
2.6979238986968994,-0.031537846,-1.002785206,-0.03015312,-0.020284507,-0.996338546
2.676685094833374,-0.037092686,-0.998678982,-0.02748822,-0.016683338,-0.993528128
2.6044249534606934,-0.032468811,-0.996804833,-0.020519735,-0.010892763,-0.99399215
2.535658836364746,-0.0294508,-0.992040932,-0.012884028,5.223974585533142e-05,-0.994400978
2.498990535736084,-0.016664017,-0.991603673,-0.005180705,0.009979645,-0.995422423
2.480520725250244,-0.005328886,-0.993038297,-0.001553345,0.012065675109624863,-0.996035278
2.4709725379943848,-0.007792529,-0.995721042,-0.001730673,0.005685331,-0.998565912
2.472398519515991,-0.004561037,-0.997270942,-0.004897516,0.001136709,-0.999703884
2.474623203277588,0.00174846,-0.994160533,-0.005476154,-0.002612256,-1.002733469
2.476468801498413,0.003519616,-0.992134511,-0.001628909,-0.005715845,-1.002111554
2.4709842205047607,-0.00315709,-0.99513042,-7.47E-05,-0.003047558,-1.000599861
2.460581064224243,-0.001685766,-0.995665669,-0.000480913,-0.000591965,-0.997403741
2.463689088821411,0.009052029,-0.995743275,-0.004448961,0.006739471,-0.997251689
2.4737913608551025,0.01713448,-0.994490683,-0.00377294,0.014158455654978752,-0.996648073
2.4705636501312256,0.022908076643943787,-0.993975103,-0.00357388,0.010972619,-0.995999277
2.469773292541504,0.003176727,-0.998668969,-0.003523491,-0.002260856,-0.990292609
2.4546992778778076,-0.020002786,-0.998627007,0.000133242,-0.009651897,-0.990217566
2.449430227279663,-0.018079501,-0.997243285,0.001597792,-0.022882979,-0.992118359
2.445483684539795,-0.016172435,-0.998039365,0.002485365,-0.024958123,-0.9989537
2.446249008178711,-0.006166768,-0.998045802,0.00565384,-0.029946059,-1.003392577
2.4554555416107178,0.004878003,-0.997751415,0.002515621,-0.024471169,-1.002672911
2.4591126441955566,0.008547529,-0.995476544,-0.001877762,-0.006977633,-1.000075817
2.455538034439087,0.004423764,-0.997343838,-0.002960496,-0.000646269,-1.001368642
2.443934440612793,-0.015751664,-0.99998194,-0.005861357,-0.000385063,-1.004647613
2.434086561203003,-0.035198789,-1.000853777,-0.006483577,-0.010175653,-1.004271865
2.4313580989837646,-0.039325584,-1.003180146,-0.006307073,-0.021370158,-1.003050685
2.4370861053466797,-0.038560763,-1.004373908,-0.007914554,-0.015669925,-1.002052784
2.437903881072998,-0.032053187,-1.004299998,-0.005412132,-0.017108779,-1.000564218
2.503661870956421,-0.023697965,-1.00384903,-0.003705502,-0.015659761,-1.000080228
2.6599676609039307,-0.015519742,-1.006142974,-0.000961225,-0.009957904,-1.000317097
2.782252788543701,-0.012117418,-1.008765817,-0.003162701,0.001473527,-0.998952329
2.866899251937866,-0.008984758,-1.008376479,-0.004945662,0.007411335,-1.000294447
2.9250617027282715,-0.002858309,-1.002503514,-0.006582178,0.008255243,-1.001526475
2.9522693157196045,-0.007202681,-0.998201311,-0.013689149,0.014053311198949814,-1.00074923
2.956716537475586,-0.023446215,-0.994173229,-0.018396601,0.024986058473587036,-0.99933517
2.952899217605591,-0.034295589,-0.990939796,-0.018570039,0.034158632,-0.998849332
2.949094772338867,-0.04425168,-0.989838719,-0.015557676,0.040304142981767654,-1.001527667
2.945697069168091,-0.039724179,-0.989216328,-0.009040793,0.037353765,-1.003020644
2.9436752796173096,-0.025753787,-0.99003911,-0.006307326,0.031116568,-1.004617095
2.9445180892944336,-0.012276422,-0.993413866,-0.004880343,0.019438881427049637,-1.003582478
2.940502882003784,-0.004053512,-0.999081433,-0.009028129,0.01038174,-1.003491759
2.9460246562957764,0.008533021,-1.001665592,-0.011118116,0.010022841393947601,-1.003542662
2.958498954772949,0.022890981286764145,-0.999960542,-0.011273157,0.014744736,-1.00029397
2.9641966819763184,0.028034698218107224,-0.99630022,-0.012470218,0.019658733159303665,-0.997369945
2.965104103088379,0.024867180734872818,-0.993984401,-0.012375742,0.028655298054218292,-0.998782218
2.961658239364624,0.015342303551733494,-0.995622337,-0.00977587,0.032948393,-1.003087044
2.9563663005828857,0.002516923,-0.998178482,-0.004328055,0.030342556536197662,-1.004177809
2.9513142108917236,-0.001835248,-0.995993674,-0.001445502,0.023501764982938766,-1.003895283
2.9514212608337402,0.013737086206674576,-0.998808622,-0.000325739,0.019076865166425705,-1.001416683
2.9523723125457764,0.008487486,-1.001042008,0.008113969,0.017793606966733932,-0.997547388
2.961172580718994,-0.006179776,-1.00037539,0.014672508463263512,0.013545293360948563,-0.992564142
2.967733144760132,-0.00037159,-1.001135588,0.019791186,0.011852938681840897,-0.989119232
2.9622223377227783,-0.002958748,-1.00067389,0.012341022491455078,0.017811354249715805,-0.989534438
2.9559128284454346,-0.004114933,-1.003302574,0.009828197,0.024139445275068283,-0.992500424
2.9530909061431885,-0.000991873,-1.00537324,0.008604392,0.025187604129314423,-0.996631801
2.952289104,0.010505544021725655,-1.005849957,0.012942068,0.021433021873235703,-0.99983716
2.9541492462158203,0.023798337,-1.006362915,0.018066719,0.010690901428461075,-0.998974144
2.9580249786376953,0.034998812,-1.005768299,0.021465860307216644,-0.000410141,-0.998652577
2.9648919105529785,0.040629257,-1.005597949,0.020554248243570328,-0.01549216,-0.998596072
2.9737420082092285,0.051670209,-1.003081322,0.019390162080526352,-0.022403128,-1.000995874
2.979151964187622,0.045395575,-1.003230929,0.018054094165563583,-0.013171989,-1.001217961
2.9886391162872314,0.022581830620765686,-1.00198245,0.008963101,0.00611781,-0.99997282
2.993110418319702,0.013976347,-1.001460671,0.003702577,0.023266338,-0.9990381
2.982377290725708,0.003995899,-1.00346601,-0.000180788,0.030525889,-1.000942945
2.9695303440093994,-0.003877666,-1.002542973,-0.00238179,0.028225306421518326,-1.000861168
2.9643399715423584,0.003392002,-1.004470825,-0.006554643,0.017429783940315247,-1.000765085
2.9648232460021973,0.020756435,-1.004226923,-0.00395437,0.004211493,-1.001905322
2.9709994792938232,0.031605147,-1.003678918,-0.00100429,-0.005456116,-1.00246501
2.969963312149048,0.030785646,-1.00173378,0.001822166,-0.004931092,-1.002301216
2.965432643890381,0.022016599774360657,-0.99930495,0.006753229,-0.001056932,-1.001047969
2.963906764984131,0.017170056700706482,-0.997214496,0.005577974,0.007733349,-1.000479221
2.9668610095977783,0.009084015,-0.999852896,0.003332421,0.019310385,-1.000835419
2.9635531902313232,0.002898928,-1.002066612,0.003843129,0.025354829,-0.999691367
2.963188648223877,0.000580009,-1.0011307,0.010162041,0.022008180618286133,-1.0004915
2.9679718017578125,-0.002881325,-0.998852372,0.011130948,0.017667870968580246,-1.000885725
2.960428237915039,-0.013927339,-0.996928036,0.011816248297691345,0.011413969099521637,-1.001161098
2.9500138759613037,-0.018966023,-0.994052589,0.013249456882476807,0.003358118,-1.000241399
2.947625160217285,-0.027144006,-0.994626641,0.012078613042831421,-0.006861093,-0.999997616
2.940289258956909,-0.035009708,-0.996340454,0.012724079191684723,-0.011239653,-1.001205087
2.9292123317718506,-0.036664203,-1.001401544,0.01213219,-0.008601943,-1.003408074
2.9260671138763428,-0.03232155,-1.001826763,0.010413662,0.000815174,-1.005713224
2.936537504196167,-0.022676377,-0.999952257,0.00874383,0.012864973396062851,-1.004451752
2.955683469772339,-0.013136464,-1.002237558,0.005127981,0.015517801,-1.001306534
2.968075991,-0.008389237,-1.003766418,0.001446273,0.013678986579179764,-0.999236047
2.9752392768859863,-0.016452163,-1.000872731,-0.000933584,0.015792114660143852,-0.999231875
2.980694294,-0.022944275,-1.00145793,-0.003948145,0.013896243646740913,-0.998136282
2.974127769470215,-0.027348384,-0.997006238,-0.002552599,0.010050576,-0.998957515
2.9568591117858887,-0.034120016,-0.992535472,7.721409201622009e-05,0.002429549,-0.998607695
2.9455759525299072,-0.037746474,-0.991500437,0.001357924,-0.001919104,-0.997902036
2.9343338012695312,-0.046880849,-0.992250919,0.003464613,-0.004075356,-0.996865988
2.927581548690796,-0.060183283,-0.996546566,0.006850295,-0.007735809,-0.997227013
2.931248188018799,-0.1201877,-1.000579596,0.007725935,-0.011676342,-0.998000443
2.9411463737487793,-0.183585271,-1.00401175,0.003194008,-0.015823666,-0.997671962
2.948605537414551,-0.227227464,-1.003214598,0.004933208,-0.017396202,-0.99945879
2.953219413757324,-0.243549794,-1.001596928,0.005385906,-0.008273406,-0.999591827
2.959510564804077,-0.247904047,-0.998649776,0.003926285,0.003057916,-0.998103976
2.947105646133423,-0.247364998,-0.994972467,0.004754506,0.001152726,-0.999702811
2.9342143535614014,-0.243798062,-0.997347772,0.005179033,-0.006175237,-1.001556277
2.9349913597106934,-0.244823083,-1.000476956,0.001052059,-0.012025746,-1.001126409
2.9458420276641846,-0.238783568,-1.000360489,-0.00366693,-0.008304206,-1.000903726
2.964386224746704,-0.22405982,-0.996303976,-0.003262922,0.009963015,-0.99875176
2.972235679626465,-0.222168535,-0.992882192,0.000277855,0.023377347737550735,-0.998419225
2.9674787521362305,-0.224356338,-0.993155599,0.002580643,0.025488948449492455,-0.998898268
2.968231439590454,-0.227430835,-0.997382879,0.005654804,0.026750207,-1.00077343
2.9721832275390625,-0.23243399,-0.998499036,0.008215062,0.026661403477191925,-1.001125693
2.9739789962768555,-0.240652069,-1.001669765,0.009727903,0.029008776,-0.998555005
2.9759268760681152,-0.252084434,-1.00320518,0.008988138,0.029887892305850983,-0.995249808
2.9764227867126465,-0.252135396,-1.003859758,0.007024143,0.025906363502144814,-0.995656788
2.9764976501464844,-0.250015467,-1.00334537,0.004722331,0.017473239451646805,-0.998994589
2.9813320636749268,-0.247641712,-1.004905224,0.000103351,0.007947912,-1.003773928
2.984325885772705,-0.238469675,-1.004127502,-0.003515802,-0.006592617,-1.006071925
2.973872423171997,-0.229831904,-1.004414082,-0.004062351,-0.011964142,-1.004211187
2.9691648483276367,-0.228167564,-1.00465858,-0.001406189,-0.00962945,-1.001471639
2.974745273590088,-0.237637341,-1.001291871,0.003372308,-0.006654756,-0.998622119
2.979696750640869,-0.308264881,-1.001968741,0.003563616,-0.011268754,-0.999764383
2.986189126968384,-0.378562391,-1.000928998,-0.006567255,-0.017235082,-1.006005645
2.9951417446136475,-0.422393531,-1.000766516,0.1416090428829193,-0.018587671,-1.000251889
2.9926533699035645,-0.453637779,-1.006142259,0.43325817584991455,-0.015175571,-0.999661326
2.978511095046997,-0.484138638,-1.01035893,0.6735320687294006,-0.002365096,-0.991989017
2.9700405597686768,-0.500049889,-1.009693027,0.8526347875595093,0.015934498980641365,-0.989489555
2.970130681991577,-0.494236976,-1.00771296,0.9642727375030518,0.031610012,-0.994269788
2.9738833904266357,-0.487192899,-1.003693104,1.0214749574661255,0.042718321084976196,-1.001294971
2.967334508895874,-0.480201036,-0.999845386,1.0374996662139893,0.049919799,-1.008954048
2.964050054550171,-0.486791223,-0.995447457,1.0384883880615234,0.049487129,-1.010422587
2.963205575942993,-0.496616215,-0.994817734,1.038382887840271,0.04479181,-1.009539962
2.9657740592956543,-0.489198476,-0.9974823,1.0328720808029175,0.040297385305166245,-1.007634282
2.969212770462036,-0.481136024,-1.0018543,1.0317425727844238,0.034441873,-1.005114317
2.9746501445770264,-0.478716463,-1.005125642,1.037895917892456,0.032737371,-1.001756787
2.9809069633483887,-0.475432694,-1.002999187,1.0445787906646729,0.030364932492375374,-0.998998106
2.983126163482666,-0.458912849,-1.000334263,1.0510320663452148,0.024623747915029526,-0.998999238
2.987241506576538,-0.442855775,-0.993953884,1.0561689138412476,0.019449612125754356,-1.000231743
2.985464572906494,-0.443250328,-0.995485365,1.0588513612747192,0.021194612607359886,-1.001400709
2.9862964153289795,-0.448512673,-0.996041596,1.055035114,0.026034208,-1.001871943
2.9847984313964844,-0.452193826,-0.995608509,1.0476771593093872,0.031492971,-1.003408909
2.977220296859741,-0.467128575,-0.994921625,1.0426968336105347,0.027951624244451523,-1.004828453
2.9617154598236084,-0.474522501,-0.994518697,1.0412958860397339,0.016374662518501282,-1.004823565
2.9516687393188477,-0.476993799,-0.995106936,1.0400952100753784,0.00515946,-1.001990318
2.9398324489593506,-0.47916925,-0.996940494,1.040042757987976,-0.006853199,-0.999866128
2.9388716220855713,-0.48202154,-0.997926593,1.0436577796936035,-0.015407499,-1.000253916
2.952131986618042,-0.490100086,-1.002261996,1.040343165397644,-0.006567938,-1.001594543
2.965669870376587,-0.494348198,-1.00483644,1.0391322374343872,0.001699608,-1.004977107
2.975040912628174,-0.480026841,-1.003119826,1.0378800630569458,0.005068664,-1.006691337
2.9779791831970215,-0.478144884,-0.999584496,1.0376626253128052,0.00375348,-1.00575304
2.9788718223571777,-0.483351707,-0.996130764,1.0393226146697998,0.007059265,-1.004877806
2.975379467010498,-0.483578146,-0.999380469,1.0424295663833618,0.016693852841854095,-1.004971027
2.967944383621216,-0.471087158,-0.999753773,1.0459871292114258,0.017552705481648445,-1.006190896
2.962003231048584,-0.455644041,-0.998228848,1.0449310541152954,0.01753455,-1.00623107
2.959993839263916,-0.478919446,-0.996652484,1.041948914527893,0.017403237521648407,-1.003393888
2.963139772415161,-0.55801034,-0.997231543,1.041011095046997,0.016460100188851357,-1.00326848
2.9722917079925537,-0.614311099,-0.998960495,1.0352360010147095,0.012214064598083496,-1.003762007
2.9754064083099365,-0.643988848,-0.996901393,1.0295250415802002,0.005324263,-1.003235102
2.9697630405426025,-0.669926047,-0.999679089,1.0240718126296997,0.000881176,-1.003818989
2.965862512588501,-0.684874237,-0.997711122,1.0240978002548218,0.002647804,-1.006587744
2.9634265899658203,-0.688393295,-0.996261716,1.028405785560608,0.009915899,-1.006761312
2.9592783451080322,-0.687219918,-1.000284553,1.0350914001464844,0.019095933064818382,-1.004404664
2.9557230472564697,-0.682179689,-1.001210093,1.0361897945404053,0.022863984,-1.000482202
2.9568846225738525,-0.686393142,-1.000806451,1.0397257804870605,0.016058577224612236,-0.998920739
2.9598827362060547,-0.691018879,-1.002243519,1.039669156074524,0.009887036,-1.000446916
2.9622583389282227,-0.697630644,-0.999471605,1.0370903015136719,0.007610248,-1.002453804
2.9598848819732666,-0.687263012,-1.000187755,1.0327818393707275,0.006266411,-1.003223658
2.9574508666992188,-0.673307002,-1.001636744,1.0304392576217651,0.008277971,-1.004115939
2.9664671421051025,-0.669958055,-1.002435684,1.0305854082107544,0.007735856,-1.005266309
2.9656667709350586,-0.672264278,-1.004048944,1.0325837135314941,0.013220824301242828,-1.005409956
2.9657766819000244,-0.672722161,-1.00194478,1.037080169,0.023211032152175903,-1.005071998
2.970687151,-0.676921844,-1.00033319,1.0404572486877441,0.025339828804135323,-1.003618002
2.9773447513580322,-0.69064033,-0.999233127,1.0453349351882935,0.026479801163077354,-1.002393365
2.9753403663635254,-0.705635726,-0.998686016,1.0473321676254272,0.02800392,-1.001581192
2.964242935180664,-0.70241797,-0.99932307,1.0458548069000244,0.028715476393699646,-1.000736833
2.9505481719970703,-0.6930632,-0.999676824,1.0408153533935547,0.023466140031814575,-1.001168013
2.9438388347625732,-0.747594774,-1.000226021,1.0336638689041138,0.016810942441225052,-1.000742674
2.9520628452301025,-0.840041399,-1.000064969,1.0268397331237793,0.013060787,-1.001116157
2.9677670001983643,-0.904319227,-0.997956395,1.100259542,0.005705027,-0.996407986
2.9750266075134277,-0.966098726,-0.997415125,1.1986500024795532,-0.003587708,-0.99306494
2.976996421813965,-1.001416445,-0.998593807,1.2850594520568848,-0.003852336,-0.99134922
2.9735231399536133,-1.008761883,-0.99933517,1.3467075824737549,-0.00215324,-0.993540645
2.965620517730713,-1.002750754,-0.999210835,1.3833820819854736,-0.00021839,-0.997618556
2.9598660469055176,-0.995362818,-0.9997437,1.3986749649047852,0.001165384,-1.001322627
2.9553334712982178,-0.986978233,-1.002042651,1.3996953964233398,0.001887639,-1.00343442
2.9521169662475586,-0.975551963,-1.005516768,1.395802379,0.003641123,-1.003170133
2.9569995403289795,-0.980562687,-0.999308944,1.3928914070129395,0.008908587,-0.999812365
2.969996929168701,-0.963046432,-0.997176766,1.3949240446090698,0.016293076798319817,-0.997483611
2.9767563343048096,-0.951660991,-0.998215437,1.3950587511062622,0.018442442640662193,-0.996443212
2.9835774898529053,-0.973531604,-0.997374058,1.3932065963745117,0.015450289472937584,-0.99444288
2.983212947845459,-0.989463568,-1.000221968,1.390219807624817,-9.81E-05,-0.992272079
2.977337598800659,-0.99172157,-1.002245903,1.387798786,-0.017021077,-0.990491867
2.979322671890259,-0.999291539,-1.00534153,1.386263370513916,-0.024183378,-0.99160707
2.9776084423065186,-0.98737812,-1.005998135,1.3882482051849365,-0.022255771,-0.993790984
2.966057777404785,-0.964728117,-1.003845334,1.3901208639144897,-0.019800916,-0.995070398
2.963630437850952,-0.955913126,-1.001894951,1.3944143056869507,-0.017147278,-0.995608866
2.969393014907837,-0.974994898,-1.002034664,1.3958094120025635,-0.017700352,-0.993875086
2.9727933406829834,-0.983146429,-1.003552556,1.3952406644821167,-0.021474315,-0.994053483
2.976382017,-0.981351376,-0.998913646,1.3957347869873047,-0.016521776,-0.995732069
2.974144936,-0.976570845,-0.996214986,1.396055817604065,-0.009191832,-0.994619131
2.9691717624664307,-0.968334317,-0.99307543,1.395957350730896,0.003564658,-0.997322381
2.963082790374756,-0.958293974,-0.994361818,1.3959463834762573,0.016395021229982376,-0.998063385
2.959738254547119,-0.938556969,-0.993001521,1.3950083255767822,0.016857100650668144,-0.997549117
2.9605743885040283,-0.919733882,-0.994210184,1.3925678730010986,0.005957156,-0.997286975
2.9592137336730957,-0.918709338,-0.996804953,1.3889762163162231,-0.00595277,-0.996633232
2.961721658706665,-0.928590119,-0.998800039,1.386043667793274,-0.013254927,-0.995842934
2.9674558639526367,-0.937094927,-0.999788404,1.3855494260787964,-0.010081667,-0.994396806
2.971280813217163,-0.942910492,-0.999597549,1.3888360261917114,-0.003410947,-0.994572163
2.9786739349365234,-0.960437059,-1.001956463,1.3909597396850586,0.000271002,-0.995181322
2.9793224334716797,-0.977086961,-1.000889301,1.3996880054473877,0.007100089,-0.993194759
2.974207639694214,-0.992992878,-0.997872055,1.4069643020629883,0.015885416,-0.991556466
2.9787120819091797,-0.997442544,-0.998006105,1.408119797706604,0.018062698,-0.990345597
2.9721755981445312,-0.988674402,-1.001251459,1.4017164707183838,0.015611646696925163,-0.993739307
2.950024127960205,-0.991202414,-1.001853466,1.3964602947235107,0.013828678,-0.99474448
2.9404566287994385,-0.99152714,-1.000529289,1.3912887573242188,0.011828346,-0.994937837
2.9432833194732666,-0.989872634,-1.001397848,1.3889739513397217,0.013734081760048866,-0.996369004
2.953861713409424,-0.996071756,-1.002543926,1.385740041732788,0.022785278037190437,-0.996817827
2.965646266937256,-0.999449492,-1.000006437,1.3841798305511475,0.030618578,-0.994829535
2.969924211502075,-0.991194665,-1.000665069,1.3869413137435913,0.027981468,-0.993730545
2.9612057209014893,-0.971701741,-0.998460412,1.3889747858047485,0.024493383,-0.9931463
2.9548439979553223,-0.955680728,-0.994639933,1.3913565874099731,0.016172869130969048,-0.994579792
2.9514169692993164,-0.948425651,-0.998227417,1.387566328048706,0.012547381222248077,-0.997738481
3.0101869106292725,-0.955317378,-0.994728684,1.3806030750274658,0.011601573,-0.999734461
3.0908684730529785,-0.94553107,-0.996429861,1.3771570920944214,0.013007823377847672,-1.001737237
3.1471381187438965,-0.945146918,-1.001365304,1.3779977560043335,0.010086219757795334,-1.003634334
3.1799585819244385,-0.965292096,-1.00408113,1.378677248954773,0.014877226203680038,-1.003455758
3.194829225540161,-0.982051075,-1.003661633,1.3837467432022095,0.012986069545149803,-1.000475407
3.2010934352874756,-0.982353151,-1.004074216,1.3886245489120483,0.010229811072349548,-0.998478055
3.2088894844055176,-0.981055737,-1.001789093,1.3940178155899048,0.012184815481305122,-0.996373057
3.2139675617218018,-0.974303782,-0.999149561,1.3959306478500366,0.015545336529612541,-0.995558202
3.210559844970703,-0.952252507,-1.000280023,1.472387433052063,0.011385269463062286,-0.986424923
3.208378553390503,-0.940801859,-0.999277532,1.591264009475708,-0.004957991,-0.979814053
3.214498281478882,-0.936528504,-0.998056829,1.6869505643844604,-0.024372725,-0.982847691
3.223253011703491,-0.939212322,-0.999094844,1.754280448,-0.040573467,-0.99169749
3.2269742488861084,-0.940047801,-1.003618717,1.7920278310775757,-0.04350023,-0.998272598
3.230004072189331,-0.941923738,-1.002995133,1.810783863067627,-0.038396426,-0.999820948
3.2306673526763916,-0.953731477,-1.003212571,1.8134713172912598,-0.02993742,-0.998302519
3.2229855060577393,-0.964609623,-1.002999902,1.810683012008667,-0.026093833,-0.997242689
3.2103281021118164,-0.973236144,-1.002659559,1.8087615966796875,-0.02285664,-0.995848954
3.203575611114502,-0.977862656,-1.000612259,1.807299017906189,-0.019416109,-0.99420619
3.201369524002075,-0.986640036,-0.999069333,1.8071199655532837,-0.016659001,-0.992057741
3.2026655673980713,-0.986584961,-1.003478885,1.8132504224777222,-0.018279849,-0.986070156
3.2097256183624268,-0.992002428,-1.005954742,1.8211559057235718,-0.022752371,-0.978551984
3.2105014324188232,-0.984931469,-1.006220222,1.8283181190490723,-0.025165509,-0.975733101
3.2006914615631104,-0.981196046,-1.0011518,1.8352497816085815,-0.022697255,-0.975702047
3.192918539047241,-0.993183494,-0.998421967,1.839653491973877,-0.021089114,-0.978370368
3.2033653259277344,-1.003537059,-0.997141659,1.8421512842178345,-0.02819364,-0.977112055
3.2147951126098633,-0.984947085,-0.998360932,1.8403029441833496,-0.03574032,-0.987798095
3.2217586040496826,-0.967241645,-0.996637046,1.828573465,-0.031436827,-1.009028077
3.2156941890716553,-0.970502377,-1.002784729,1.8047325611114502,-0.024733579,-1.024543881
3.2075703144073486,-0.970695138,-1.00174284,1.7546790838241577,-0.020499174,-1.02455461
3.2082738876342773,-0.968896031,-1.002586007,1.7425016164779663,-0.024719382,-1.014780402
3.2111616134643555,-0.960732162,-0.999322355,1.7415343523025513,-0.032764897,-1.004944444
3.2107443809509277,-0.963752031,-1.000671744,1.7506877183914185,-0.043301705,-0.999159038
3.2139980792999268,-0.965625942,-1.001902223,1.764971375465393,-0.050930373,-0.997187793
3.219029188156128,-0.963356793,-1.002004862,1.7799385786056519,-0.055313736,-0.996722579
3.217484951019287,-0.960795581,-0.997724056,1.7911392450332642,-0.054605804,-0.99635452
3.213804006576538,-0.95855099,-0.990455806,1.7971283197402954,-0.054658826,-0.996047914
3.2329423427581787,-0.965613544,-0.991191089,1.7998151779174805,-0.052915275,-0.994405568
3.2777225971221924,-0.971382916,-0.996935964,1.7988474369049072,-0.050752029,-0.993816793
3.307274341583252,-0.990711629,-0.995247066,1.799386978149414,-0.046615321,-0.992301643
3.319465398788452,-1.009807587,-0.995448411,1.8002419471740723,-0.045332883,-0.990069568
3.3320446014404297,-1.022543907,-0.997943342,1.8030076026916504,-0.043776322,-0.989115
3.3427317142486572,-1.027390599,-1.003972411,1.8073238134384155,-0.044801053,-0.988268435
3.342913866043091,-1.037454963,-1.005334139,1.8082585334777832,-0.047593381,-0.989258349
3.3504745960235596,-1.028156281,-1.004056573,1.8061227798461914,-0.047011014,-0.990466952
3.3520703315734863,-1.017828107,-0.995757222,1.805370807647705,-0.045785528,-0.992913425
3.3482120037078857,-1.00967133,-0.99176383,1.8085901737213135,-0.041153219,-0.993149281
3.3432748317718506,-1.015017986,-0.994241774,1.8107715845108032,-0.034551404,-0.991837621
3.3413138389587402,-1.044617534,-1.001720667,1.8112921714782715,-0.030274292,-0.989567459
3.350814104,-1.060342073,-1.00807178,1.812152624130249,-0.033144467,-0.989382207
3.355747938156128,-1.059368134,-1.008380294,1.8101463317871094,-0.03428258,-0.990462661
3.3567428588867188,-1.048848152,-1.003911972,1.8047311305999756,-0.042783123,-0.992103994
3.3599581718444824,-1.047336221,-0.999190688,1.7996344566345215,-0.045498185,-0.992321432
3.3587288856506348,-1.063496828,-0.998385847,1.7960749864578247,-0.044870816,-0.990950108
3.368602991104126,-1.052122951,-0.998423934,1.7956390380859375,-0.044072121,-0.989227772
3.362328290939331,-1.036717415,-0.998631239,1.7978689670562744,-0.047628984,-0.987142563
3.361361503601074,-1.023847938,-0.998817205,1.7997784614562988,-0.049834847,-0.986838818
3.3719561100006104,-1.014499903,-0.998204947,1.8039519786834717,-0.051023953,-0.987147272
3.3671958446502686,-1.021903992,-1.003064871,1.8087894916534424,-0.04807514,-0.987290978
3.3489348888397217,-1.03744626,-1.002861738,1.8140099048614502,-0.043377429,-0.987501681
3.3421993255615234,-1.048889875,-1.002520919,1.814687967300415,-0.036424916,-0.984882832
3.3488693237304688,-1.05620122,-1.002237439,1.8151748180389404,-0.04348252,-0.984884679
3.3569552898406982,-1.053425193,-0.998582006,1.8153549432754517,-0.055992573,-0.985320508
3.360083818435669,-1.047416687,-0.990503848,1.8115732669830322,-0.060317621,-0.983518958
3.360152006149292,-1.047303557,-0.985570967,1.8084394931793213,-0.056595627,-0.982215405
3.3605682849884033,-1.041288137,-0.989405155,1.8066354990005493,-0.052199274,-0.982331395
3.366373300552368,-1.036300778,-0.995866299,1.8088610172271729,-0.04628291,-0.982540131
3.3577675819396973,-1.045910001,-0.999095619,1.8103995323181152,-0.038696516,-0.982907057
3.3514060974121094,-1.054577112,-1.002557039,1.8080118894577026,-0.033914842,-0.984881222
3.347771167755127,-1.057038903,-0.997843444,1.806168556213379,-0.032051757,-0.985509336
3.348076343536377,-1.049694896,-0.999299586,1.802154541015625,-0.035153203,-0.986790597
3.338475465774536,-1.047816753,-1.001544237,1.799262285232544,-0.039621513,-0.987389266
3.338989258,-1.049815416,-1.005970955,1.7992737293243408,-0.043600522,-0.987059534
3.338299036026001,-1.053463697,-1.002899289,1.8007506132125854,-0.043947212,-0.987331092
3.3466439247131348,-1.045020938,-1.005232453,1.8049736022949219,-0.04192752,-0.986062586
3.345547914505005,-1.047580123,-1.003316522,1.8088990449905396,-0.04415831,-0.986437261
3.3440983295440674,-1.03983748,-1.010216117,1.8095300197601318,-0.043224417,-0.987976074
3.3653295040130615,-1.024696112,-1.005948901,1.8086140155792236,-0.041690063,-0.989861846
3.3783304691314697,-1.025875807,-1.003430963,1.806686520576477,-0.040791176,-0.990955234
3.359539270401001,-1.04308486,-1.001540184,1.8046338558197021,-0.044345804,-0.989490211
3.3359344005584717,-1.053960443,-0.998531163,1.8052045106887817,-0.048002426,-0.988470972
3.331878900527954,-1.054860711,-0.997824073,1.8075040578842163,-0.046734206,-0.988220811
3.3543007373809814,-1.040215492,-0.994799614,1.8096102476119995,-0.043334074,-0.987217546
3.3599603176116943,-1.034320951,-0.989885986,1.8132387399673462,-0.04135704,-0.986035407
3.363361120223999,-1.025784492,-0.99040091,1.8156895637512207,-0.040635247,-0.9862082
3.3729398250579834,-1.022649169,-0.996104777,1.8147375583648682,-0.043659255,-0.98758477
3.3660731315612793,-1.041395783,-0.996543467,1.8139313459396362,-0.042345326,-0.988684297
3.351755380630493,-1.038975716,-0.998656332,1.8119126558303833,-0.042853653,-0.989721477
3.349395275115967,-1.029163241,-0.998667657,1.8077744245529175,-0.046128515,-0.9885934
3.347742795944214,-1.025180817,-0.99954766,1.8025280237197876,-0.054218482,-0.988776326
3.359126567840576,-1.015320897,-0.99611026,1.7997595071792603,-0.060654663,-0.986143827
3.357725143432617,-1.02465117,-0.995407641,1.7982620000839233,-0.06332995,-0.982536912
3.348207950592041,-1.032992601,-0.993095756,1.799576997756958,-0.060995124,-0.980906904
3.363168716430664,-1.025050282,-0.995674551,1.8022819757461548,-0.055941921,-0.982387424
3.356706380844116,-1.031594038,-0.996167421,1.8032206296920776,-0.053835724,-0.987361908
3.3578848838806152,-1.032814026,-0.993437827,1.8033572435379028,-0.049013592,-0.992159605
3.3691442012786865,-1.028809667,-0.993253112,1.7992230653762817,-0.04662703,-0.993683875
3.3708510398864746,-1.029339314,-0.994466186,1.7950725555419922,-0.044006489,-0.994479835
3.3586483001708984,-1.030514598,-0.996940732,1.7949416637420654,-0.042447709,-0.99403441
3.353055715560913,-1.026634932,-0.997564077,1.7962868213653564,-0.045743424,-0.993109465
3.357351303100586,-1.027404547,-0.998736262,1.7974121570587158,-0.048506133,-0.992055297
3.3690011501312256,-1.025305748,-1.000207901,1.800187110900879,-0.048072234,-0.992546856
3.365827798843384,-1.025059462,-0.999702871,1.8053356409072876,-0.047671709,-0.991866648
3.351039409637451,-1.031358123,-1.003809571,1.8094159364700317,-0.045812882,-0.989976406
3.340977668762207,-1.03622663,-1.00576961,1.810874581336975,-0.041099776,-0.988270521
3.348212957382202,-1.032605767,-1.000426888,1.809691071510315,-0.03634784,-0.987732053
3.342529535293579,-1.030578375,-0.999336421,1.8104438781738281,-0.029622538,-0.987257183
3.3428637981414795,-1.03062427,-0.999845862,1.8109407424926758,-0.02424526,-0.986303926
3.346053362,-1.039707184,-0.996391237,1.8105735778808594,-0.020669345,-0.983318985
3.3403899669647217,-1.040476203,-0.99633795,1.8088772296905518,-0.023773249,-0.982005417
3.3295774459838867,-1.042043328,-0.998719096,1.805502176,-0.031226853,-0.982897758
3.329860210418701,-1.036920309,-1.001712322,1.8008902072906494,-0.045654379,-0.98565197
3.3358607292175293,-1.03678298,-1.001050472,1.7970174551010132,-0.053401597,-0.987734973
3.3438596725463867,-1.038348079,-0.995915651,1.796895146369934,-0.057341151,-0.986359298
3.3541853427886963,-1.034610748,-1.00121963,1.7986725568771362,-0.058969155,-0.98537308
3.354677200317383,-1.031641364,-1.000857711,1.7979556322097778,-0.058525704,-0.984637737
3.350545644760132,-1.030319571,-1.003454328,1.797951340675354,-0.054981098,-0.985204875
